2.637234 -3.406708 -0.946790
16.271131 -3.380999 0.405631
17.127166 -3.344251 -0.444340
10.308307 -3.598174 -0.901339
-0.547717 3.319744 -2.124863
16.861735 -3.576413 0.030785
10.445921 0.745199 -2.831009
13.060119 -2.659737 -0.645934
13.994887 -2.234623 1.761815
8.898412 3.540593 -0.272203
28.203293 -1.075065 -1.583889
-0.316932 -3.264812 -0.406619
18.027173 3.183471 1.613122
17.042212 1.974287 1.808400
17.849837 3.150154 1.934055
17.618797 0.598958 4.189556
13.590539 0.026266 6.564686
-0.703268 1.120709 -2.844097
22.922878 -2.440269 -0.348620
16.225310 -1.967936 1.970626
29.229902 -0.298399 -1.778523
18.320639 3.194557 2.157269
22.269227 -3.150805 -0.647890
11.367881 -1.548319 1.750928
13.197308 -2.714992 1.711722
23.841732 -0.757943 -0.253564
3.442894 -1.130753 0.956352
6.940112 2.330540 1.646041
-0.936125 -1.463826 -0.018523
-1.096719 -1.037636 -0.701581
18.639388 3.209701 -0.533362
16.406293 -3.131965 2.199143
25.678505 -1.785985 -0.251885
-0.363959 1.108504 -0.017848
16.914097 2.104227 0.553514
13.844831 -2.028494 1.625734
-1.858435 3.175076 -2.087066
28.041681 1.630244 -0.146897
-2.987623 -0.660596 -2.171053
14.574770 3.551876 -0.941562
13.563281 -0.784902 10.660988
-1.412777 2.743287 -0.795086
8.835200 2.082070 0.615984
18.193743 -1.325978 3.446519
7.606628 3.553606 -0.968686
19.657384 3.068406 -2.147460
21.002739 0.566152 0.589337
25.979692 2.011230 -0.949226
1.467200 3.340099 -0.748573
29.802718 -0.032950 -1.472148
0.117499 -3.076148 -0.814478
8.440272 -3.503596 -1.079317
27.455606 1.846042 0.007064
3.372136 2.033997 0.476495
17.953222 1.292770 4.176550
12.154838 -3.416889 -2.646052
27.074861 -2.126280 0.411136
-0.483188 -1.010536 -0.698018
17.536119 -1.949876 3.020626
11.908246 2.750194 1.683473
17.923877 -3.182796 2.818106
15.795601 -3.504734 0.025297
13.824978 -3.596906 -0.110656
0.014952 -3.312205 -0.373811
23.698612 -1.557943 -2.815449
10.098619 -0.939235 -2.831416
9.833604 -3.210900 -0.760147
-3.061615 0.453453 -1.001541
11.822517 -3.647216 -2.043836
19.626089 1.864152 -2.820231
6.313307 1.146941 1.671112
2.775414 -1.093632 -2.840015
15.044840 -3.641003 -2.053708
14.475299 -3.385750 -2.617957
6.704337 -3.394985 0.087367
12.834115 2.306218 -0.627336
14.383462 0.130687 4.131848
14.964583 1.824743 3.210937
6.433364 -3.353439 -2.305906
7.689836 2.114190 0.284969
29.262341 0.175456 -2.371746
26.737981 0.468903 -0.190125
18.737058 1.394069 1.894666
21.290473 2.986233 -1.633697
13.742379 2.268385 1.607262
13.745883 -1.733760 3.095549
13.163878 3.646364 -2.023974
3.829224 3.122047 -2.838777
-0.379543 3.252325 -1.213173
23.658101 -2.806686 -0.889833
21.512962 2.759489 -2.104762
18.536492 -2.792944 2.405525
9.537231 -3.545484 -0.289916
14.915970 -1.944497 2.172057
15.382529 3.389619 -2.135952
-0.839932 -1.306096 -2.844258
6.999602 -3.213994 2.139753
27.069784 2.047685 0.748748
-2.317349 0.302595 -0.694162
-3.009260 2.249863 -1.444095
11.621650 2.041526 1.058887
6.423094 2.160578 -0.185850
20.414893 -3.441716 -0.231264
19.935598 -1.774627 1.910383
8.819791 -0.996321 1.723255
17.169953 -1.364963 -2.823114
-0.606161 3.135050 -2.354211
-0.470761 3.367360 -2.176553
-3.084999 0.026845 -2.139210
12.878690 -3.768000 -0.975178
12.376302 -0.448277 -2.828743
23.243797 -3.185910 -0.761314
30.151850 -0.449273 0.401211
19.395297 0.367485 0.639934
6.202708 -3.300246 -2.705117
2.656767 0.304657 1.209915
13.443555 1.694476 -2.827489
21.282631 2.699039 -2.391367
-2.984221 1.400383 -1.617448
24.589673 -1.816216 -2.300344
-0.343850 -0.097010 -0.684963
7.023809 3.430119 -1.474259
17.768959 -3.528977 -0.721374
25.659116 2.204355 -0.762094
15.512434 -3.603478 -0.371950
29.121174 0.652933 -0.618019
15.954401 2.134643 0.242387
18.212459 0.489965 4.202242
-2.229565 0.066863 -0.011686
15.386659 -3.423242 0.008875
11.719505 2.242664 1.570359
27.545739 -2.009222 0.705370
7.408962 -3.265879 0.987072
5.802754 -1.983702 1.903581
25.613750 -2.199155 0.117479
11.392499 3.281620 1.627147
18.498390 -1.337093 -2.821555
13.755100 -1.785885 2.593574
13.314788 3.636272 -2.135704
9.793772 -0.557179 1.751168
-0.331567 1.972482 -2.843661
1.233610 -0.919266 -0.015962
17.194603 3.659435 -0.951865
17.155568 -3.581914 -0.333437
20.877251 -0.762375 -2.818761
16.723995 -3.464419 -1.327606
3.694220 -0.631628 -2.838936
9.108618 -0.360336 1.739786
6.141891 -3.416430 -1.524022
19.452603 2.757775 -2.820434
19.393233 2.270014 2.004261
9.540990 -3.405940 -2.516732
4.750996 -3.608687 -1.034260
22.727380 -3.045425 0.273745
14.016893 -1.270046 -2.826815
24.551507 -2.324313 -1.835505
14.371749 3.539324 -0.036021
19.622549 -0.424932 -0.001620
22.103342 -3.159767 -0.702044
13.883444 1.088028 5.189676
17.124194 3.372149 -0.260746
21.289649 3.171682 -1.011457
18.758567 3.374264 -0.545679
15.227051 -3.456798 -1.911732
29.575398 -0.251628 -1.345537
2.637903 0.276523 0.770221
22.536956 -3.206191 -0.073697
4.894202 -2.224449 -0.225723
25.375779 2.324859 -0.731314
4.617760 3.542255 -0.998966
6.755520 -0.446471 1.695496
2.681038 -0.546650 0.554107
19.451219 2.146110 1.721589
18.180135 0.422075 4.068547
19.869387 0.439562 2.998417
23.368292 3.118815 -0.526044
20.447499 -3.383877 -0.397934
19.348724 2.557071 -0.457165
3.433915 0.276756 1.478477
14.870300 3.452985 -0.672747
12.700791 -3.121059 2.236123
15.143716 1.251680 -2.825492
15.752046 3.365014 -2.196613
1.920166 3.355283 -0.752859
-1.863632 3.224479 -0.759655
16.305231 -0.850900 -2.824129
17.876488 -2.525354 -2.822285
6.941659 0.333932 -2.835122
-1.540238 -0.103393 -2.845081
13.898592 -3.177047 1.719815
7.476248 2.548058 2.194868
10.995904 -3.482275 -2.263076
11.583355 -2.866346 -2.829674
9.903569 0.522637 -2.831645
2.682399 -1.520825 0.440844
3.509691 3.315267 -1.793571
12.694172 2.122706 0.296468
0.082581 -3.248512 -1.629720
-1.326582 -3.228981 -0.406319
15.578931 3.253199 1.978906
18.954543 -1.515651 1.355417
0.993487 -3.516232 -1.091980
-2.980425 2.428000 -1.662701
18.969477 2.040054 0.095120
22.657350 1.443721 -0.299787
4.031187 -3.312581 -2.096141
-0.775675 3.172698 -2.021994
25.667365 -0.666533 -0.214900
14.840242 -3.769480 -0.923116
9.450233 3.477664 -2.286339
17.404946 2.035871 1.221556
29.978832 0.596056 0.571320
4.040052 3.394269 -0.433608
-2.709880 -0.965447 -0.020615
8.333385 -2.210163 -0.511756
20.956342 0.559875 0.600949
13.722192 1.322125 1.803170
8.006746 3.479462 -0.472565
26.042197 -2.304134 -0.180508
17.592701 -2.210541 -0.342230
28.557992 1.493649 0.542347
0.336900 -0.026862 -0.681875
14.599736 -1.898208 2.612313
0.768432 0.676315 -0.685247
9.230244 -3.473826 -1.646352
20.736413 1.558769 -2.818927
4.513171 3.309429 -0.261905
6.344290 -3.474255 -2.267970
3.456451 -1.095663 0.117128
12.827585 0.951309 2.893137
5.234500 -1.983702 2.547582
8.710841 3.514808 -0.862229
7.158495 2.604700 1.919935
20.264383 2.856475 -2.503975
-2.607260 3.169189 -0.282939
11.900345 -2.682244 1.689979
1.047759 -1.551690 -2.842042
1.285686 -1.524359 -0.015901
3.723210 -1.014508 2.795406
18.675765 2.519161 2.919822
6.499670 -2.933926 -0.776478
-2.334700 -2.172521 -2.846013
18.230678 -3.249343 2.182095
4.282580 -0.454134 -2.838245
25.579945 -0.167716 -2.813241
-2.916589 2.355409 -0.357714
3.304976 2.917763 -0.592191
5.314644 -0.255437 -2.837033
12.313029 3.447424 -2.185361
18.006528 -3.531215 -0.482111
5.222078 -3.402899 -1.413409
9.646979 -3.530026 -1.056815
11.119125 -1.169217 -2.830219
20.425292 3.255568 -0.027186
2.760560 1.851420 0.456307
18.315547 0.105621 -2.821770
1.240782 -3.343371 -0.293624
-2.236692 -0.809983 -2.845898
-0.722545 -0.366410 -0.687351
-0.010663 -3.118520 -0.281803
14.122850 3.255777 1.926989
17.072120 3.239807 -2.484235
6.911803 -3.376024 -0.398840
4.542674 2.133246 0.042559
13.749730 3.200045 2.457286
11.868710 2.803501 2.200193
3.401813 0.947269 1.622737
8.034262 1.967008 2.546299
10.983193 -3.575658 -0.616517
14.799689 -2.869860 1.819636
13.765433 2.128036 0.265132
21.348145 -3.337741 0.127035
21.056467 -0.511172 0.329891
13.082871 -0.119481 2.995706
3.460748 -1.045805 -0.142388
13.207369 3.391639 -2.740076
6.327239 -3.404063 -1.718563
11.402838 2.038563 1.083359
20.042168 -2.990306 -2.269525
2.616741 -0.123836 -2.840201
6.595024 3.373391 -0.338612
21.117391 -1.657386 -2.818479
22.641454 -3.026005 -0.400584
13.019209 3.400830 -2.663299
11.860123 -3.398260 -2.821775
7.833680 3.463085 -1.276659
7.730199 3.448142 -1.433393
3.130616 1.557399 1.595538
14.610364 -2.207554 -2.826118
26.008151 -0.063102 0.280231
21.723928 -2.644100 -2.301548
4.274285 -3.284404 -2.465496
7.994165 2.339193 -2.833886
9.068323 3.530661 -0.763604
15.531210 3.424828 -1.884215
26.717406 1.846878 -0.234837
25.649940 1.440003 -2.274398
13.867731 3.556443 -0.643376
13.553529 1.855960 2.884129
21.159048 1.047496 1.390238
3.441347 0.132084 1.029531
16.538346 1.940989 2.119898
12.675081 0.591462 -2.828392
17.655505 3.579444 0.052406
10.798602 -2.360072 -2.830595
21.203563 -3.181533 0.321452
-3.114166 -0.642395 -0.253679
10.976894 1.137338 -2.830386
2.643044 3.427695 -0.977743
14.147495 1.710678 4.087752
12.532166 2.099529 1.742609
-0.336170 -3.290650 -0.737357
20.135956 1.018338 1.904553
26.380011 0.119637 -0.196710
11.858383 -3.200122 2.537713
-0.058331 2.426260 -0.017487
7.437808 -2.916831 2.481893
13.853751 -0.402141 2.906558
10.009494 0.093769 -2.831521
3.167436 -1.368790 1.604467
5.542913 3.235739 -0.667596
-2.480874 1.415730 -0.721760
24.945186 -2.378090 -0.940160
13.860980 3.461192 -2.039940
17.460544 3.397364 0.108695
18.534910 -1.147226 2.908803
3.719327 0.057434 4.096705
4.090206 -1.588064 1.613027
16.443290 3.509562 0.129853
27.720477 0.918951 -1.682685
18.540331 -0.407489 2.582463
14.892009 -2.673838 -2.825788
-2.921076 0.810774 -0.704383
1.076157 1.125925 -0.695074
19.058239 -0.304481 1.591645
10.740197 1.603402 -2.830663
7.757927 0.687788 1.709783
15.362542 -3.583646 -0.631370
9.625753 -1.247940 -2.831971
12.575319 3.480043 0.158647
0.054433 -0.155858 -0.683066
19.955560 -1.835743 1.782643
13.918414 -1.459655 4.095106
28.398140 1.495339 0.862982
9.670842 3.460826 -1.757682
20.493390 1.846814 -0.376650
28.841478 1.143226 -0.528500
1.430233 3.352522 -0.365287
27.145720 2.109218 0.506611
7.793163 2.704810 2.461261
20.604752 -0.524996 1.136798
21.976701 3.043362 -0.420103
8.785260 3.431169 -0.402981
19.660587 2.300765 -2.820191
8.716342 -0.316814 -2.833039
11.875646 -3.201028 -2.829329
19.165399 3.408091 -0.922672
20.818399 -3.411398 -0.277087
4.111083 -3.389842 -0.589111
10.534035 3.094974 -2.830906
21.137010 0.541861 0.329076
15.606449 3.602547 -0.057605
26.268374 1.658977 -1.764758
7.024000 -3.389248 0.084737
13.085505 3.576575 -0.162255
-2.347709 -3.218491 -0.274477
11.827148 -3.221309 -0.444725
16.200040 -1.868097 2.932474
20.269160 2.737357 -2.805098
13.583436 -0.427307 10.665051
19.927433 -1.349148 1.951043
17.026334 3.571835 -0.329379
30.589376 0.025203 1.084880
14.356737 -2.409836 1.756291
1.098138 1.940636 -0.016122
16.144547 0.124402 4.165269
16.631251 3.444002 0.581051
19.738514 2.273645 -2.820099
6.364335 -0.725280 1.683173
10.564671 -3.395177 -0.764579
13.553859 -1.784275 2.605317
22.718787 2.693849 -1.607603
29.039555 -1.124110 -0.083343
17.271766 -2.121420 0.510800
9.056118 -2.788382 -0.736332
4.901673 1.324737 -2.837518
16.117433 3.553412 -0.500304
11.772256 2.064801 0.837367
-2.993174 1.142055 -0.020949
16.791336 -3.145673 2.074099
25.240781 -2.638233 -0.689853
-1.115437 1.659844 -0.018734
20.468699 3.241094 -1.196611
16.199195 -0.115053 -2.824254
19.711266 -1.735844 2.545028
13.985614 -3.575066 -0.317561
17.200222 -2.892054 1.625247
8.872175 2.518456 -2.832856
14.847991 -2.323990 1.771500
13.571228 -1.998271 1.629233
14.136436 -3.387943 -2.673907
15.589889 -2.279308 -0.555026
15.355961 -0.803315 4.142968
25.483464 2.310061 -0.287537
5.977572 2.143985 -0.034245
23.248342 -3.091645 -0.067945
12.569132 -3.327298 2.203288
14.584156 2.165171 -0.077495
10.172099 -3.445755 -0.763946
17.635581 3.200924 2.521447
5.684829 -0.707266 1.670853
14.397872 2.199388 0.077255
-0.778092 2.212507 -2.844185
7.432185 2.963965 2.465676
7.860654 0.589898 1.713808
11.141250 -3.380712 0.066671
27.895442 1.632632 0.486476
-2.838521 -2.838128 -2.846604
6.839368 2.023469 1.143504
0.072665 -2.337530 -0.757836
13.626011 -1.769106 2.752802
20.978911 3.241261 -0.947577
27.279585 -2.094668 0.596060
18.536096 -0.352248 2.837435
12.361804 0.951309 2.101490
16.585414 2.622427 1.634583
-1.768369 0.054577 -0.691446
12.044028 -3.301092 2.357911
11.612362 3.431916 0.423406
15.171014 -2.820185 -2.825460
6.864322 3.481575 -0.563839
19.393904 -3.505190 -0.224277
14.643929 2.027628 -2.826079
9.675727 -2.093664 0.636265
3.445570 1.846358 0.774447
1.274770 2.884180 1.879218
17.369974 -2.949999 -0.551896
-2.259170 -0.671687 -2.845925
16.971373 -3.331645 1.459518
14.797260 1.886900 2.608685
24.964254 2.235137 -1.231234
25.099306 -0.241128 -2.813805
17.662639 -3.157584 1.756682
5.486213 3.461127 -1.199819
27.305469 1.309579 -1.524844
22.986158 -2.658089 -1.585772
13.234700 -2.103439 0.608600
14.041944 1.554619 4.419223
-2.159950 -3.257607 -1.179549
12.121176 3.515674 -1.359406
25.398303 -1.514372 -2.317583
20.848121 3.168227 -0.235891
13.399454 -3.230163 1.392093
16.505683 -2.155455 1.814028
4.631393 -2.763082 -0.771329
11.930497 3.332108 1.226966
13.590025 2.367133 1.744102
27.377677 -1.438651 -0.973338
10.764567 -2.618580 -0.693126
19.619742 1.734429 2.471567
20.202987 2.834649 -2.589553
16.322287 -2.832742 1.760479
3.436215 -0.162863 1.339523
11.999401 1.170106 1.776701
13.906380 -3.503420 -0.520715
26.473910 2.174314 0.432892
20.536894 1.075515 1.250440
12.282317 -3.283781 0.909208
16.932460 3.282624 1.722613
-1.903477 1.134153 -0.709037
16.941494 -1.715723 -2.823382
14.639635 2.590793 1.747248
19.605868 -0.692234 1.785886
-0.887101 3.125913 -2.345690
2.607657 3.017284 -2.840212
16.281168 -1.748729 4.084558
12.542743 -1.575181 -2.828547
28.032289 -0.095479 -0.160039
17.712869 3.529409 -0.261217
4.643985 2.191787 -0.519941
25.942316 -2.188012 -0.269507
10.016178 2.166650 -0.177182
18.268561 -1.862868 -2.821825
16.055043 1.862787 2.864627
7.937437 3.451579 -2.303389
-3.124094 -0.151796 -1.064160
6.031479 2.138832 0.016427
15.641581 -3.454811 -1.732865
4.298528 -2.409350 -0.746217
16.338481 3.444286 -1.498991
4.227337 1.773901 -2.838310
18.922164 -2.834816 1.715326
17.283650 2.926502 -0.553788
8.393708 1.974564 1.644922
23.593963 -0.808200 -0.259945
24.712728 1.121916 -0.244825
16.240036 3.505919 -0.570785
3.427976 -0.061065 2.738862
12.448581 -3.165248 1.806919
1.795531 2.766808 -2.841165
6.689758 -2.206997 -0.511979
16.451090 3.430767 0.677102
23.295272 -0.503408 -0.259926
0.516506 -3.173952 -2.428857
17.743124 -1.789750 3.348540
10.273549 -0.941059 1.751876
14.412732 2.886513 1.572564
7.170901 -3.499220 -0.404039
16.532435 -3.422906 0.114983
10.568891 0.751641 1.761764
27.146978 2.145441 0.671515
17.167074 -3.052853 -0.567070
22.999044 2.577595 -1.759050
-0.351025 -0.933520 -0.010932
17.185873 1.933418 2.204980
23.589453 2.648002 -1.853763
16.540416 -3.064266 -2.823853
13.493557 -0.052539 11.581711
22.535091 -2.856362 -0.194462
3.445384 -3.090787 -0.723442
19.627500 -0.232824 2.711287
1.643768 -3.357504 -0.255632
2.245294 0.674017 -2.840637
15.289917 -0.370927 5.450929
-2.916048 -1.408124 -0.548020
15.268172 2.159461 -0.009660
12.146041 2.397718 -2.829013
22.867296 -2.952511 -0.181804
24.245195 -2.776642 -0.595513
-2.177999 2.177845 -2.845829
7.404355 -3.164282 1.689954
15.245939 3.556870 -0.621320
8.952736 -1.338875 -2.832761
19.453274 -1.980356 2.718312
13.852304 -0.004151 2.993887
-1.466146 2.990433 -0.019148
16.216393 -2.181044 -0.083651
22.124632 -2.686651 -1.989639
16.259942 1.770376 4.124254
15.669215 -3.298958 -2.788428
17.938144 3.198505 2.550496
24.674267 -0.371332 -2.814304
28.732762 -1.061837 -0.256395
25.769426 -1.440666 -2.225963
16.503758 -3.214461 1.571120
16.779705 -3.143467 2.095153
24.752078 -0.400045 -2.814212
12.213726 1.175111 -2.828934
8.930903 3.511562 -0.956134
-1.604392 1.921896 -0.019311
5.966632 0.181433 1.681574
16.338893 -0.514589 4.166780
-1.208189 2.520399 -2.844690
16.303446 3.438675 0.622494
4.709773 0.700220 -2.837744
27.489063 -0.545814 -0.173930
19.487323 -1.865891 -2.820394
3.436599 0.414091 1.316320
23.708387 2.928193 -0.250795
18.044544 -3.043422 2.225608
18.086456 -0.031973 4.201599
14.794240 3.378573 -0.426619
0.965015 1.493446 -0.708655
13.007636 -0.201373 1.812826
-2.894406 -1.344609 -0.020832
21.221458 3.212339 0.249793
30.394523 0.044599 0.050047
8.224938 -3.520013 -0.361808
20.995136 -3.367338 0.154869
-2.478461 2.357923 -0.771721
9.387462 -3.420496 -0.283086
15.411871 -3.133442 2.166695
14.346705 2.597379 1.594635
18.951625 3.060691 -2.475029
15.835240 3.233973 -2.824681
21.185995 -0.354755 -0.310470
-1.567648 -3.400233 -1.017385
5.418429 3.514995 -2.228546
-1.144442 1.967425 -0.741066
6.024376 0.816606 1.674592
17.248638 -3.086142 -2.823022
16.716008 -2.379328 -2.823647
24.126820 -2.976256 -0.504599
-2.889685 -0.441019 -0.215970
3.465362 -1.287708 -0.400725
-1.800128 -1.832126 -0.735860
-0.130190 -3.281059 -0.794933
15.088057 3.589516 -0.062173
-2.624034 -0.845455 -0.011796
3.311216 -1.705626 -2.839386
12.696287 2.745179 -0.662418
1.940966 -3.367360 -0.379768
2.779205 -2.211413 -0.627632
4.701255 -3.357139 -1.794287
-2.485332 -2.977035 -0.020350
8.631549 -2.174710 -0.164451
5.789853 2.105580 0.332424
19.461080 1.426336 0.425563
15.969088 0.983359 -2.824524
-2.853246 -1.594359 -0.020784
2.481267 1.171817 0.120257
10.442858 2.189836 -0.392686
26.878208 1.574250 -1.663398
13.036753 3.018092 -2.827967
22.251238 2.999324 -1.851693
16.408230 -1.931701 2.811699
16.781127 1.956609 1.973871
5.051072 3.392660 -0.580083
14.044188 1.077407 4.715748
14.181333 3.260502 1.882532
27.046596 -0.954202 -0.192845
17.013929 2.069633 0.888820
6.248706 3.164066 -0.798457
19.584594 -2.273333 -2.820280
10.250448 2.099332 0.476066
10.929412 3.397870 0.613842
-1.032058 0.249784 -2.844484
16.353442 3.474740 -1.256401
7.234553 -3.188073 1.948035
22.864582 1.910150 -0.317423
4.780927 -3.406592 -1.249362
5.472077 0.167696 1.672370
7.334557 2.927856 1.776502
13.080841 0.232626 3.118356
21.590879 -1.006804 -2.817923
20.263411 -3.347002 -0.896960
14.663297 0.766252 -2.826056
0.998249 3.288965 -0.279758
23.160904 2.591372 -0.354743
12.781005 -0.963376 1.957746
28.570909 0.704521 -1.484746
26.482579 -1.344200 -0.218022
8.380015 3.213359 -0.782926
3.717312 -1.669320 2.637552
6.464807 2.282687 -2.835682
15.255892 -2.183217 -0.122554
14.734889 -3.066290 1.710709
3.931480 -2.242082 0.767493
28.427553 -1.534792 0.687820
2.092519 -0.969102 -0.014948
7.722357 1.179907 1.696396
20.510336 3.377671 0.199253
21.895559 -2.524083 -2.450437
7.276217 2.822662 2.473097
26.668872 -0.843141 -2.775581
14.650224 -2.334382 1.620445
6.783548 3.322886 -0.810124
20.793136 0.972371 -0.332585
19.342144 -2.206066 2.325172
3.723916 1.022017 2.591167
6.814657 3.258095 -0.803337
5.531981 -2.156276 -0.044738
19.692249 3.449344 0.094312
3.419786 1.487614 -0.720180
4.997994 1.372865 2.478458
19.748644 -0.218976 1.793671
20.510637 3.343520 -0.798439
17.267259 -2.652054 1.645989
10.985232 3.323007 0.388268
5.009262 -2.696223 -0.765004
-3.043168 0.183075 -1.157753
20.017728 -0.866246 -0.353043
7.819854 3.186095 2.056292
17.723437 2.394589 -0.498452
10.749431 3.331286 0.292798
4.670254 -3.466835 -0.286013
13.903231 0.447713 4.120878
17.055338 -3.053986 -0.570661
20.159697 3.449826 -0.485193
24.511285 2.763167 -0.720283
24.939169 0.774733 -0.231594
16.152621 2.204465 -0.426899
2.395908 1.899251 0.938763
14.151891 -0.688419 4.122999
17.096518 -0.161814 -2.823200
6.534919 -2.559467 2.188893
8.653930 3.548183 -2.240584
15.999666 3.148991 1.911662
17.874391 1.812750 2.895410
18.434587 -2.086628 0.867894
18.701776 2.110134 0.743346
10.428971 1.935386 1.883317
6.868763 2.799391 2.463960
14.774093 -2.293633 1.625630
18.709418 -3.509120 -0.312980
23.014426 2.967694 0.434537
11.596864 3.292228 0.692629
17.939890 -3.092723 -2.814689
19.427313 -0.552016 0.809667
13.294407 -3.415028 -0.155241
13.034939 2.089808 -2.827969
16.282487 -3.300418 1.299784
9.762286 3.507316 -1.220900
14.922428 3.276404 1.743021
-0.046283 -3.275057 -0.661472
17.574410 0.600498 4.188698
3.299071 -3.269008 -0.271589
6.300202 1.574729 -2.835876
-2.781036 1.639347 -0.020698
16.264613 2.162347 -0.018848
15.526123 -3.568564 -0.575285
-3.020756 1.915852 -1.349816
27.337154 2.019924 0.269186
11.086228 0.247167 1.778120
0.312709 -0.886897 -2.842905
9.909671 2.011064 1.320486
14.741885 2.078254 0.763232
3.114575 3.467068 -2.147641
-2.657625 -0.618622 -0.699252
18.007685 2.113867 -2.822131
11.772443 -3.567924 -0.881310
2.341057 -3.200667 -2.605347
19.744484 -0.213286 2.159541
8.043385 1.983961 1.547541
14.534013 3.065599 2.687112
26.611348 -0.672111 -2.812030
5.613525 -0.170417 1.675046
3.430178 -0.765623 -2.839246
13.288980 -3.246792 2.114425
13.871907 -3.052619 1.809868
5.107277 -1.474146 2.660931
18.151650 1.585018 2.577907
-1.920080 -0.417211 -0.693297
17.560223 -2.923290 -0.543450
25.735840 -0.304038 -2.813058
11.935446 -1.268242 1.772577
13.487646 3.594698 -1.078089
19.604362 -2.951869 -2.562094
17.236786 3.063035 -2.823036
26.314087 2.362418 0.194785
8.268807 3.036226 -2.833565
6.853377 3.236195 1.644418
18.345502 2.567039 1.671741
-2.822077 3.164902 -0.767551
14.488278 1.014111 4.120792
14.106646 -0.541817 4.124245
26.106691 -1.859058 -1.156212
25.777408 -1.726750 -1.638989
10.376820 -2.360554 -0.388224
24.779550 -2.178991 -1.479599
28.196102 1.390102 -0.224594
17.444690 2.123748 0.375280
10.763298 3.288135 0.628184
15.395514 2.876198 2.410721
10.595075 -1.977306 2.243894
-0.649445 -3.242491 -1.399914
-3.048615 -3.110443 -1.185875
6.720200 -3.382894 -2.059764
20.882077 1.054038 1.864867
4.969586 -3.416015 -1.192158
22.781848 3.084538 0.137935
8.891723 2.840775 -0.744066
17.782917 -0.083210 -2.822395
23.241765 -3.023761 -0.144838
17.456457 2.681017 -0.527848
10.485432 3.286884 -0.756399
18.698504 -1.900268 1.723962
23.127126 3.118066 0.209323
-3.109500 -1.327363 -1.090781
-0.743630 0.198480 -2.844145
0.050336 -2.369233 -0.017359
14.632829 -3.073216 2.731762
12.709895 3.351562 1.116513
3.012649 0.556275 -0.693748
25.712194 -1.849635 -1.446870
15.292140 -0.859390 5.316717
5.321913 -1.544369 2.819037
24.843617 -2.911610 -0.660993
1.185946 -0.622296 -0.016018
8.165537 -3.540751 -1.182254
20.748634 -2.904890 -2.174770
-2.777140 -2.354782 -2.846533
15.396591 -3.084788 2.345632
16.104225 1.772228 3.738428
-2.959188 0.160318 -1.817571
17.853762 -3.328232 -1.805768
5.178230 3.421657 -0.433553
16.721093 3.563299 -0.645055
-2.013734 1.852970 -0.019793
3.196605 -0.376601 1.629170
2.411472 -0.180770 -0.672389
17.647285 -1.933252 3.008035
23.248112 -3.085446 -0.255280
20.499456 -3.080588 -1.994018
14.296695 3.561473 -0.427382
18.754091 -1.908629 0.890574
2.767688 3.357076 -0.616439
19.943128 -0.521531 -0.348488
7.367480 3.516086 -0.265379
25.872301 -2.467256 -0.153298
19.219101 -0.908813 -2.820709
9.004140 -3.029395 -0.757052
14.440785 -2.156843 0.116405
-2.917236 2.522053 -0.717416
20.760981 0.899904 0.843243
20.977553 -0.941692 0.570396
3.438686 0.563497 1.190266
11.713015 3.277842 -0.503300
12.143299 -3.588917 -0.582946
2.865025 2.746454 -2.839909
18.684427 1.217105 1.900182
-0.496871 2.966767 -2.843856
8.684613 3.028999 -2.833077
21.316267 -3.176189 -1.017604
14.950877 -3.571299 -0.531016
-1.597498 -0.611356 -0.694164
17.902927 -1.822511 2.687114
-0.338209 -2.876710 -0.799619
21.338342 -1.875085 -2.818220
17.438822 3.214582 -0.573169
28.825927 -0.521072 -1.454672
16.189802 3.323700 0.723141
12.058776 3.495810 -2.239628
-3.096122 1.492910 -0.618051
24.481913 0.717435 -2.814529
9.161876 1.929401 -2.832516
-1.790831 -0.802808 -2.845375
17.882718 -2.793105 1.950202
13.849973 1.294834 3.134688
13.863718 -0.834992 2.304449
11.636953 3.543942 -0.622268
13.100176 0.323858 1.950545
1.232515 2.776034 -2.841825
24.918052 -2.819780 0.495544
8.491427 -3.504510 -0.805710
15.439991 3.560768 -0.348667
29.437228 -0.987304 0.480023
10.619813 3.211165 -2.830805
14.743370 0.463942 -2.825962
18.255151 0.252581 3.857864
9.782928 3.564586 -2.069322
14.409373 -3.114127 2.334062
21.147001 -2.996321 -1.714194
10.246580 -3.625641 -2.203336
8.226849 3.197460 -0.783487
18.073109 -3.476454 -2.001637
7.762692 3.438148 -2.061957
17.003723 3.567059 -0.517692
29.623501 -0.256420 -1.225950
15.378514 -2.109144 0.593711
15.689093 -1.512162 -2.824852
14.789033 0.891340 4.130145
5.537391 -1.736784 1.993552
-2.687250 -0.856481 -0.011863
-2.930771 -2.544473 -2.021554
16.429576 1.920551 2.803253
24.722971 2.793634 -0.030968
3.184031 3.247810 -0.622766
6.329898 0.324348 1.687898
26.508919 2.218710 -0.201816
14.630216 0.585900 -2.826095
5.894630 1.984020 1.506783
14.205696 1.024639 -2.826593
26.000058 2.467863 0.082397
4.316700 3.423520 -0.807516
12.040084 3.383584 0.067510
-2.830923 1.008374 -2.838064
5.152013 2.961792 -2.837223
0.880934 1.531261 -2.842238
24.993136 -2.782964 0.394978
-0.587886 2.967148 -0.018112
22.180000 3.012674 -1.004872
3.893465 -2.071900 0.738201
4.667045 2.016074 -2.837794
16.566563 2.673866 1.776949
5.018599 -0.813388 -2.837381
0.731425 3.163929 -0.352382
12.297251 3.578752 -0.202067
11.956251 -3.214035 1.407287
9.217281 3.453928 -1.730315
-2.251349 -2.648467 -2.845915
15.489935 3.245808 2.048491
1.428164 -1.383370 -2.841596
13.786181 3.395508 -0.067232
-1.911316 -2.421969 -0.019673
29.647006 0.880623 -0.416270
-1.008431 -1.473324 -0.716587
17.302105 2.013300 1.437186
-0.928240 -3.174127 -0.827827
14.196142 3.078139 2.560160
17.397139 3.503594 -0.902063
20.922274 3.289312 0.480258
-0.296819 2.236641 -0.753686
20.632222 1.208298 -0.344764
3.368731 -0.081515 4.571892
17.425740 -3.290539 -2.141393
5.637745 -1.983702 1.703597
2.764960 1.634272 -0.706749
-1.647937 -0.952748 -0.019362
3.728346 -0.607788 2.703519
13.061639 -0.274813 3.248377
22.563273 2.579260 -1.987408
18.507350 -0.182449 -2.821544
7.470241 -2.032410 1.185430
9.641088 -3.463883 -1.855915
10.433922 2.172731 -0.227980
1.251230 -2.369889 -0.015941
25.063729 -2.501348 -0.633926
1.720141 1.515592 -0.015388
10.002511 -3.462138 -0.179022
2.679216 -1.539137 0.626351
1.352051 3.288659 -1.448717
13.103840 -2.077257 0.858521
25.675495 2.546046 0.634051
3.652529 2.177516 -0.400895
25.130535 0.165924 -2.813768
23.464946 0.952271 -0.266061
8.075758 -3.570732 -2.236544
24.644031 0.066502 -0.230064
-3.074593 -2.020290 -0.943086
9.116127 2.023554 1.185264
-3.096992 -0.391071 -0.124750
0.783039 -2.329815 -0.753955
7.559995 -0.091110 1.711708
17.156503 -1.875338 2.880591
8.587462 -3.475564 -0.212696
14.005968 1.788972 3.537899
10.864147 -2.189350 -0.263808
3.618062 3.314389 -1.835784
-2.953154 -1.293262 -1.962183
22.620593 3.188790 0.318540
12.645364 0.951309 1.853429
7.421252 -2.157938 -0.025425
14.312201 -2.750257 -2.826468
0.371530 -3.192571 -2.291951
12.596079 -3.181552 2.730475
25.496494 -2.471569 -0.391465
6.142916 3.280307 -2.743444
10.198006 -0.828582 1.753281
20.660526 -2.410257 -0.405491
20.126668 0.636898 -0.345126
13.367260 -3.583862 -0.718020
8.481076 -2.117059 0.388421
5.063719 -3.304393 -2.465394
4.373381 2.565710 -2.838139
17.887895 -2.198464 -0.220295
10.957130 -2.992507 -0.719765
4.985775 1.863535 2.226893
6.515896 3.382817 -0.340041
24.849252 -2.567493 -0.637455
6.868065 -3.400059 -1.910904
1.595914 1.801740 -0.719426
11.960843 -3.225456 1.320469
8.936587 -1.991327 1.609683
8.761636 3.430724 -1.883288
13.662019 1.134163 2.793854
2.640761 0.593418 0.590619
9.322666 -2.214343 -0.533544
28.621889 1.342898 0.001589
14.384033 2.791207 1.726720
17.892007 -3.132706 2.219297
0.879868 3.232684 -1.899497
14.282630 -2.204236 0.144685
19.801775 3.444859 -0.158358
17.771005 3.401669 -1.873541
7.134708 3.533687 -2.244093
-0.320597 -0.391340 -0.017797
18.459066 -1.323558 2.391010
18.992652 -3.143588 -0.514838
4.402378 -3.099136 -0.799727
12.820330 -3.230769 1.340603
-2.755611 3.050307 -2.373519
18.087386 3.352000 0.079321
3.731078 0.491674 2.287638
16.807204 3.174045 2.765233
11.448416 -3.665782 -0.922594
11.712443 3.571121 -0.346074
22.697945 -3.246438 -0.573810
-1.381532 2.068108 -0.747950
6.003577 2.177556 -0.357348
3.428243 2.021721 0.595850
-1.459249 -3.012306 -2.780389
11.345247 -1.971409 1.729130
0.636012 2.791826 -2.842525
7.178663 -2.693141 -0.751209
14.745077 2.440200 1.760577
2.542272 3.271528 -2.321348
23.058169 -3.130749 -0.119497
-0.498869 3.247031 -0.661183
17.168439 3.076991 2.626359
15.131829 3.462230 -0.001367
2.801205 -3.370033 -0.643138
-1.187527 -3.161712 -2.125314
11.567096 3.395833 -0.132087
9.644605 3.544949 -0.270626
2.389210 0.802314 0.086458
14.075168 -2.220651 -0.505447
11.075783 -1.397245 1.751617
18.290137 -3.151851 -0.538495
17.847761 3.506138 -0.963484
10.727488 3.540857 -2.044166
7.815172 -2.875351 2.390706
13.874734 2.450084 -0.612432
3.728220 -0.547582 1.955583
5.045592 1.608262 -2.837349
22.588948 -3.052635 -0.773043
3.468541 -0.143025 -0.613078
15.158744 2.226636 -2.825475
16.415706 1.891560 3.082434
20.770795 -3.375073 0.293872
4.875401 2.520025 -0.753293
9.844239 -1.300032 1.732265
6.568948 2.034745 1.029757
14.528415 3.592674 -0.809039
13.822982 -3.178538 1.704137
26.793623 -1.524837 -1.302367
-0.984290 1.120678 -0.018579
17.536008 3.497867 -2.018566
16.479339 -2.601427 1.635132
-2.931057 -3.110188 -2.021796
9.303163 2.082600 0.619628
13.112806 3.302372 1.501053
-2.391078 3.179599 -0.534114
-0.188530 -3.270716 -1.212323
20.997136 3.304971 -0.701938
16.143185 -2.768515 1.615979
1.059090 -2.292792 -2.842029
15.121581 -3.630736 -0.795998
8.385839 3.510787 -0.217518
10.127634 -3.737382 -1.063205
8.803418 3.522611 -0.537900
2.839408 3.400388 -2.262752
2.377728 -1.965278 -0.014612
12.045659 3.456368 -0.680033
11.532221 -0.400206 1.784980
20.941329 0.597588 -2.818686
-3.016466 0.239044 -0.697261
27.302364 2.075690 0.598610
27.169578 -2.088860 0.204632
9.996847 2.307790 0.239936
6.860178 2.542382 2.152111
17.021810 2.431076 1.803797
28.519804 1.423253 0.874769
16.919031 0.064606 -2.823409
8.335726 3.577003 -2.225767
20.539698 2.222599 -0.397085
29.459876 0.995706 0.881539
18.178211 3.112801 2.657921
0.808794 0.658022 -0.016464
9.345151 2.739894 -2.832301
17.037772 3.404983 -1.578749
10.795179 -2.542012 -0.687282
6.585764 -3.207823 2.093560
10.022269 -2.191039 -0.295830
9.494105 -3.101499 -0.756023
10.923589 3.227439 -0.741815
20.659319 -1.437718 -2.819017
17.853862 3.176035 1.757364
-2.923522 -0.512511 -2.067445
18.704821 1.406053 1.893610
13.304233 3.460531 -2.044772
28.344493 -1.458658 0.648857
9.615093 3.522536 -0.991131
5.598750 -2.057529 0.908313
-0.182574 -3.316131 -0.352046
18.916619 -1.453671 1.580757
17.584027 0.065845 4.192331
16.610174 1.356193 -2.823771
17.497172 3.265858 -0.576339
9.052205 -3.428199 -2.126790
14.147576 -3.505207 -1.536819
16.878708 3.285910 -2.354851
-1.833934 -1.388016 -0.717326
16.577761 1.906758 2.450584
25.760273 0.111555 0.209483
17.752187 -3.460862 -0.586104
29.804952 -0.734258 0.467092
20.696286 1.074148 2.277518
12.371861 -3.363855 1.097031
0.923758 2.633631 -0.016328
14.462816 -2.927728 -0.633617
27.915905 1.583199 0.027807
3.052431 -0.870759 -0.679048
12.325475 0.231072 2.009204
0.189686 -3.283290 -0.635842
16.646645 -0.188282 -2.823728
22.513871 2.336264 -2.520701
17.345703 3.140052 2.022165
27.502567 -1.623046 -0.207200
-1.818269 -0.338487 -0.019563
-1.343728 -2.602243 -0.783116
4.939516 2.213250 -0.233241
7.819319 -2.740519 2.158257
2.244734 3.366488 -0.704335
23.649393 2.800445 -0.161416
14.489797 -2.110316 0.565787
0.322483 -2.372839 -2.842894
17.802013 2.768368 -2.822373
25.115297 -1.467545 -2.548834
3.869207 1.671250 1.604584
25.991725 2.462364 0.014162
6.456726 0.119327 1.690943
22.079433 2.314745 -2.799130
0.130340 2.570568 -0.774857
13.223275 -3.400388 -2.769021
3.733336 -0.182942 1.801622
9.142893 3.504361 -0.587732
20.412969 2.289795 -2.819307
9.832050 3.379086 -2.679423
-2.911034 -2.938932 -2.163524
4.211434 3.416141 -2.103162
-1.764145 3.227079 -0.350728
17.447952 -1.581557 -2.822788
22.362445 3.074896 0.323666
3.846438 -2.479808 -2.838757
-3.124520 -2.744601 -0.323944
-0.049806 -1.830860 -0.727711
5.322223 3.336162 -0.255570
5.258418 2.126798 0.117970
6.788592 3.458166 -1.061633
18.538126 1.185390 2.715189
11.870593 -3.098231 2.440076
17.043891 3.114268 2.265126
-1.737085 -3.240172 -0.082085
13.912941 3.508083 -0.452311
24.839817 -1.723536 -0.265430
15.383550 3.513949 -1.182167
3.750374 -2.062405 -2.838870
19.831158 -1.116120 -2.819990
16.227854 3.393247 0.237872
19.565287 -1.687406 2.958975
12.322913 0.936233 2.163965
1.257497 1.879664 -2.841796
6.455433 -3.659680 -1.089701
28.592644 1.449515 -0.556670
6.236423 -0.378564 1.686011
23.906729 -3.099289 -0.731588
16.911524 -3.576998 -0.149073
5.058725 1.968414 -2.837334
18.668519 2.923810 -2.821356
3.723620 -1.074410 2.280940
6.765633 -3.311877 0.747872
16.318816 0.149588 4.168594
0.248630 -0.519197 -0.017125
6.776056 -0.940657 -2.835317
4.359564 3.399681 -0.715378
28.965716 -0.467471 -0.132541
12.969830 2.199596 -0.439506
14.393713 0.282438 -2.826372
-0.118160 3.285356 -0.245921
-2.869978 -2.778232 -2.453987
23.586034 -3.113541 -0.751112
13.552783 3.065042 2.674124
10.461125 -3.537125 -1.177437
0.666967 -3.401851 -1.164288
11.297605 0.212638 1.782134
15.014152 0.304606 4.143029
13.812123 3.497327 -1.581823
21.161210 3.134563 -1.180300
25.431704 -2.654349 0.076926
22.775274 3.164644 -0.409989
2.668161 -1.455806 1.262827
-1.920739 -2.600439 -0.785635
13.515418 3.439035 -2.312349
2.680895 -0.620740 0.562996
8.194629 2.201147 -0.543763
-2.967159 -1.651420 -1.750805
26.696558 2.066357 -0.247824
12.196339 3.579848 -0.385967
22.072597 -2.336674 -2.782952
4.119129 3.330537 -1.797184
13.093502 0.020764 2.353639
6.897778 0.104239 1.699241
2.574735 -2.448707 -2.840250
5.715575 1.341806 2.173055
9.725488 -3.475099 -0.186606
12.263160 -1.399336 -2.828876
2.845914 -0.050807 -0.670942
14.989308 2.202218 1.781838
-2.345072 3.113279 -0.279952
12.507567 3.217501 1.327370
27.508263 1.866589 -0.048481
13.679952 -1.036793 1.812050
-3.058081 -1.798127 -1.060392
10.308887 3.477993 -0.108086
19.545106 -1.629441 2.686907
14.733208 -2.068649 0.971959
-1.697581 0.185154 -2.845266
17.808312 1.867676 -2.822365
14.411809 1.836384 -2.826351
19.739839 0.291766 -0.331411
-3.067144 -1.661038 -2.179210
13.908679 3.588579 -0.522321
15.670969 3.563279 -0.103379
4.151745 3.214451 -0.329466
19.465831 -0.323331 -2.820419
16.120355 -1.531631 -2.824346
15.984876 3.125839 2.134153
15.292067 -0.326572 5.321131
-0.446299 1.657933 -0.721939
-0.152704 -2.789688 -0.791931
12.927757 -0.322644 3.173897
11.225360 3.362209 -0.749435
25.767399 2.609789 -0.535694
0.042324 3.284586 -0.794731
11.942275 -3.420470 -2.823381
2.068642 -0.490280 -0.014977
2.476815 0.664674 -0.698180
4.743329 1.130425 -2.837704
2.712769 2.117506 0.160340
22.789767 -3.177453 0.204273
22.956220 1.757174 -0.307464
16.732883 1.079418 -2.823627
6.044597 3.422980 -1.267871
13.869208 -0.764953 1.972806
15.707343 0.930574 4.146185
-0.043977 -0.850129 -2.843324
21.689050 -3.048015 -1.208031
21.852348 -2.541564 -0.382517
19.431161 -3.042574 -2.373930
14.003493 -0.856468 4.116495
14.182780 0.934770 -2.826620
13.219342 1.186237 -2.827752
17.168593 -2.130600 0.420384
16.534556 3.496423 0.216346
3.857385 0.435897 -2.838745
0.740798 3.237287 -1.813452
12.467164 -3.080961 -2.828636
19.493223 1.409106 1.761328
7.250717 -1.995004 1.542618
0.804919 -1.624622 -0.016468
25.564399 1.609798 -2.006304
2.671286 0.929933 1.108502
15.155609 -1.118599 -2.825478
3.478392 -2.060120 0.844256
19.089602 0.451051 -2.820861
13.934394 -3.574320 -0.351091
19.696194 -2.980454 -2.445097
14.545234 2.122123 0.336710
0.467795 -3.132389 -2.625556
-1.274640 -3.251900 -0.836630
16.585658 2.340579 1.655354
16.631795 1.839978 3.095271
0.208416 3.286407 -0.834218
17.612768 -1.940624 2.259819
13.635627 3.469165 -1.942508
4.015073 -3.511033 -1.160746
10.731926 3.624550 -2.191781
15.403763 -3.155574 1.912351
19.893280 3.554284 -0.863495
19.496627 1.532954 1.755992
22.407444 -0.618401 -2.816964
26.623013 2.141061 -0.307174
9.338366 3.409281 -2.295209
27.048345 2.060130 -0.163555
4.794614 3.300785 -2.296148
5.202909 3.381934 -2.289800
13.253898 2.849358 -2.827712
0.581122 -0.387862 -0.681503
17.118814 2.826054 -2.823174
16.228190 2.060437 -2.824220
-1.500867 -2.733499 -0.793766
13.084802 -0.366125 2.879109
-2.828626 3.190253 -0.770697
27.943329 -0.964488 -1.322246
14.823474 -0.151226 -2.825868
22.167110 3.225023 0.383192
3.713010 0.077771 4.343604
-2.196618 1.655332 -0.020009
12.731818 -2.525660 1.570851
7.168785 -2.032674 1.177247
4.740122 -3.511809 -0.982745
8.874884 3.526052 -0.730817
-0.757465 -3.259930 -0.835009
15.082742 0.679965 5.432597
21.900461 -3.295872 0.136688
13.681146 -2.214763 -0.456071
21.372712 -3.213609 0.043867
11.464636 3.448313 -0.134878
21.249497 -3.371142 -0.099610
7.099985 3.461128 -0.406561
19.086156 -2.183784 2.756005
16.345862 -1.914935 2.483737
14.455635 0.678397 4.128635
17.930164 -2.068147 1.699756
11.976471 3.459040 0.257074
26.172437 -0.463892 -2.812545
12.500213 -2.738557 1.550259
11.353166 3.175071 1.584390
3.204533 -0.643355 -0.694255
13.184678 -3.512794 -1.525261
-1.324306 3.002479 -0.815554
27.570472 -1.392984 -0.863492
2.000715 -2.966554 -0.015057
10.214519 3.437424 -0.099734
20.104771 -3.282679 0.180879
24.374910 2.829310 -0.715146
10.982932 0.252693 -2.830379
17.571544 3.182753 -2.513354
3.456070 -0.740055 0.140162
29.998052 -0.026017 -0.993455
27.508044 1.948777 0.279472
-2.966541 -0.517400 -1.754838
15.644495 2.857141 1.598095
25.827480 0.869978 -0.216528
15.693813 2.397572 -0.561458
-1.119933 -1.542546 -2.844587
15.007439 -1.891543 2.684174
17.342698 2.934922 -2.822911
8.290554 0.093179 1.725324
9.861312 1.970533 1.805435
12.981984 2.030292 1.192614
18.571338 -3.321522 -0.517761
17.082761 3.252856 -2.418331
11.671318 -3.173037 1.718071
8.630231 3.389356 -2.335946
5.435622 -1.353873 2.275142
2.664470 -1.208560 1.480022
6.862814 0.170194 1.698370
20.187751 0.001994 -2.819571
-3.098472 -0.528173 -0.184576
23.850337 -0.734364 -2.815271
29.649277 0.434775 -0.474262
5.693341 0.526723 1.674635
19.001244 1.705450 0.791546
13.913087 3.505355 -0.319659
13.173441 3.368832 -0.706375
15.115907 -0.260437 5.305194
13.148161 1.516198 -2.827836
18.535991 -0.466469 2.843767
-2.701842 -1.844171 -0.020605
4.078120 -1.330655 1.623271
25.853366 2.509829 0.409489
3.768190 -0.050750 2.325324
19.092342 -0.023296 1.927732
26.910814 -2.226274 0.678116
15.676770 1.295719 -2.824867
9.366886 0.522557 1.743572
-2.344676 -3.186218 -1.408512
1.510155 -1.956785 -2.841500
18.824072 -3.487368 0.098537
25.592842 2.574067 0.087541
26.301432 -2.371274 0.377843
-3.276256 2.286759 -1.040896
28.849834 1.243728 0.376686
-2.917073 2.755696 -0.363528
12.500514 3.354689 -0.684852
13.845304 2.897411 1.707672
19.429306 -0.092931 0.806023
-2.650554 1.892269 -2.846384
16.919399 -3.177257 1.772443
10.701813 3.488305 -1.641101
19.139455 -0.881283 1.353726
-2.964072 -2.657382 -1.783424
25.281018 -2.028348 -0.272615
19.984768 -0.994011 1.905447
14.185923 -2.045728 1.777751
29.423507 -0.952731 0.641230
-1.246269 -2.908773 -0.806341
13.458013 0.029835 10.677439
6.515693 -3.467481 -2.271569
-3.085525 0.253356 -0.801524
0.008043 -2.007841 -2.843263
14.148958 -0.653728 4.123714
11.798740 2.540930 1.697769
5.575889 2.040059 0.959966
12.271840 3.558685 -0.113181
-3.223023 -1.252386 -1.034603
-1.289755 2.033705 -0.018940
13.449718 3.081339 2.515417
20.997998 1.077521 0.538738
21.841289 -3.206213 -0.345435
29.597419 0.798639 0.498339
21.061254 -1.123031 -0.329521
-2.674092 -2.511493 -0.782689
9.306218 3.339283 -0.262990
17.470463 -2.024334 1.450299
13.711806 -2.125359 0.406242
-2.039890 3.094160 -2.293971
19.250812 -3.453313 -0.910979
3.449864 0.105488 0.515054
2.856837 2.041544 -2.839919
8.922300 -3.480943 -0.801180
6.633688 -3.402048 -0.338429
-2.855199 2.732249 -2.558444
11.409190 -0.056422 1.783808
9.074861 -1.764792 -2.832618
10.563422 -3.470430 0.076152
3.904325 3.338472 -0.267898
28.189504 -1.033885 -1.512656
15.552997 3.604223 -1.011908
1.141287 2.763873 -0.016071
1.258347 -3.320251 -0.741864
24.790392 0.854856 -2.814168
5.445188 1.341806 2.685268
25.298864 0.239123 -2.813571
9.274848 3.534170 -0.679082
19.137034 -2.093780 1.720674
22.449647 -1.494124 -2.816915
11.148544 2.175722 -0.243445
24.759022 -0.011097 -2.814204
2.545490 0.098388 -0.671895
13.767804 -0.002883 8.557591
15.553305 1.718685 -2.825012
-0.049584 -1.542381 -0.017477
13.669380 -1.935871 2.232386
20.653224 2.496715 -0.412453
13.720425 1.682854 -2.827164
2.729750 -3.532668 -1.011578
8.741549 2.127757 0.173865
6.128149 -2.074070 1.369780
12.267229 -3.263053 1.938680
16.977263 -1.800729 3.596358
6.720522 -1.982121 1.642025
29.345083 -1.046280 0.949415
23.397997 0.255575 -2.815802
8.041233 0.647239 1.715953
1.958123 -3.343685 -0.541210
10.731414 -3.319770 0.615523
15.221663 3.158450 -2.825402
8.986403 0.424190 -2.832722
3.509139 -3.039694 -0.797368
0.667893 -3.497663 -1.112562
9.238731 3.365958 -0.687073
7.307938 1.809796 1.662021
4.240976 -3.283583 -2.465252
14.508135 -2.077214 1.373240
26.421459 -0.743181 0.028839
12.525931 -0.963376 2.137186
17.640407 3.463865 -0.474597
19.110362 -2.840852 -0.486069
17.412253 1.872182 2.799482
7.108614 -1.948990 2.013010
19.425965 -3.484931 0.168511
24.321541 0.751330 -2.814718
-2.877158 -3.236389 -0.952707
13.992149 -3.116920 2.299575
13.836052 -1.012367 3.975501
3.437190 -1.960413 1.300924
-3.071135 0.531128 -0.922176
2.327114 -1.685479 -0.014672
13.099886 0.208408 1.968018
-2.259895 -3.320112 -2.195078
9.880191 3.476132 -1.635889
11.112433 -2.726609 -0.694691
-0.988455 -3.141967 -2.304308
-2.396559 -2.930177 -0.813320
15.084761 0.048350 5.310656
13.109492 -3.226846 2.303364
2.667838 -0.231253 1.275935
18.955686 -0.699882 1.876191
12.613752 -3.240395 2.194695
6.110161 1.349431 1.860634
18.370111 -0.382147 3.533237
17.560409 -1.810172 3.516267
27.358030 1.575594 -0.208974
13.134919 3.325550 1.056044
0.141346 -1.804153 -0.017251
9.245216 3.459514 -0.661021
4.062744 0.800427 -2.838503
10.433717 2.495280 -2.831023
17.549256 3.553378 0.027711
9.834642 2.081863 0.636673
17.946179 -3.556260 0.017511
21.819477 3.131242 -0.884716
10.178631 3.465825 -0.717881
17.568979 1.694053 3.917873
10.371184 2.356907 -0.439414
7.227475 2.765342 -2.834787
23.533546 3.037732 -0.140155
4.931186 -2.710847 -2.837483
1.190404 -2.939193 -0.007283
3.261838 -3.402718 -0.880440
20.171853 -3.004293 -2.175809
20.209218 0.030035 -2.819546
24.380354 -1.884000 -2.311773
14.869528 -2.791962 2.569811
13.789369 -1.646996 3.932218
18.810531 -3.504966 -0.328296
3.245842 -0.476252 -2.839462
28.332790 0.888872 -0.162597
0.069460 -3.273473 -1.294236
12.285550 -3.588007 -0.664010
4.123835 2.135596 0.012129
-2.959874 -0.918639 -0.020909
16.482437 3.314509 1.489276
-1.377940 -0.547669 -0.692007
16.658587 0.471681 4.173218
25.265825 -2.522672 -0.440737
11.773329 -1.248023 4.113721
-1.863574 -1.280410 -2.845460
1.344014 3.311041 -0.475800
11.381438 1.180299 -2.829911
22.309118 2.600654 -2.072140
19.732928 -1.489663 1.909981
25.742117 1.852673 -0.254735
21.177693 -1.198399 -2.818408
28.748724 -0.411250 -2.049786
11.498366 3.578308 -1.133852
27.124870 -1.690202 -0.218588
0.372908 1.750238 -0.016978
-3.046094 1.675691 -0.021011
18.723501 -0.779563 1.914075
14.700184 -0.028562 4.936773
23.577295 -0.237150 -0.252476
10.642773 -3.194541 -0.742682
28.037253 -1.117056 -1.647825
19.616629 -3.472018 0.144232
-0.510679 0.791127 -0.010932
16.025947 -1.874831 2.864306
12.509721 -3.258952 1.982721
6.858447 2.197925 1.644512
0.473726 -0.099278 -2.842716
8.468858 -3.477063 -1.413825
1.391715 -2.083790 -0.735387
2.663536 1.938765 1.555378
18.451223 -2.696053 2.884825
16.026002 -3.535947 0.034412
12.026042 2.503201 -0.659527
21.387829 -3.333256 0.248627
4.824893 2.423839 -0.746546
3.731355 -0.139160 3.033626
18.961267 -1.892821 1.875969
3.439511 -0.952983 1.160645
9.059974 -2.725076 -2.832636
5.286282 -3.540703 -2.169335
23.517221 2.209253 -2.225513
13.506328 3.443918 -2.262997
23.731097 1.770589 -2.815412
15.143770 -3.124334 2.249503
11.989860 3.567976 -2.195879
1.458385 -0.287827 -0.015697
12.043368 -2.011753 1.470357
19.157702 -0.880817 1.302260
18.079644 3.005321 2.456313
26.543961 1.962909 -0.645240
17.289235 2.215805 -2.822974
1.827854 0.985534 -0.687385
8.251331 3.417853 -1.909160
7.281388 3.396267 -1.926432
22.671319 -2.534288 -2.043407
5.999805 1.341806 2.548419
10.038590 3.371802 -2.772707
1.951082 2.973031 -2.840982
3.230067 0.806567 1.622551
26.588104 -2.246451 0.630660
16.009881 2.330998 -0.547612
21.012490 3.071992 -1.719045
19.425233 2.200886 -0.429980
15.789466 1.615412 -2.824734
26.268878 -1.310652 -2.124038
-2.689458 -3.101872 -2.181193
12.144900 0.875825 -2.829015
13.829325 2.142991 0.122174
19.946387 -0.574929 1.918304
17.666562 -3.243352 2.229216
6.905123 -3.367008 -2.287831
6.844676 3.269362 1.006973
21.256847 3.130711 -1.134922
6.269449 0.565865 -2.835912
6.487432 -2.570315 2.269177
22.660508 -2.653216 -1.777861
26.742133 1.632626 -0.197213
-0.270076 -1.844470 -2.843589
0.294379 -1.553916 -2.842926
24.843409 2.751032 -0.152641
6.026126 -3.621719 -1.133493
22.341250 -1.203871 -2.817042
7.223394 3.379512 -2.098948
7.217876 -3.500707 -0.614916
19.352157 -2.209700 2.291338
16.598075 -1.909937 2.536630
17.124338 3.271555 1.830754
25.890476 0.548217 -0.161109
10.741398 -1.113242 -2.830662
5.774046 3.257727 -0.286130
17.710591 -3.543209 0.008357
-0.816532 3.252821 -0.993824
-2.472674 3.339896 -1.010050
9.500271 3.541358 -0.199835
25.414417 -2.637651 0.262321
11.439343 3.431907 0.404723
29.746971 0.426425 -0.379593
0.636601 -3.323612 -0.134266
5.537875 0.763205 1.666642
5.079069 -2.119484 0.789476
3.036962 -2.056091 0.874998
13.965909 -2.873763 1.767658
14.283061 -3.601161 -0.287099
-1.678343 -0.362830 -0.019398
3.284977 -3.372579 -1.231321
4.998626 3.416546 -0.536192
23.863664 -2.674875 -1.104118
7.457755 2.656479 2.435118
1.807591 1.545078 -0.015285
18.026564 0.335450 4.200231
14.057535 3.139708 1.965612
11.903501 -3.229610 1.284730
15.646879 3.133297 2.056263
5.538269 1.566692 1.639860
-3.046571 0.170441 -0.021012
7.470336 0.780075 -2.834501
8.546848 -2.131929 0.246318
27.712003 1.891094 0.514560
19.163333 1.008173 1.766595
24.706767 -1.710720 -0.267426
21.063242 2.573605 -2.800930
18.494718 2.678399 1.812662
15.306654 3.557307 -0.486026
16.190893 0.267725 4.166176
-0.406058 -0.902419 -0.010932
12.314527 0.087184 2.670630
4.796808 1.699474 1.620616
24.641407 2.617100 -0.213941
20.944421 3.362114 0.057994
4.519970 3.207741 -0.810192
6.441200 3.119062 1.862405
13.957095 0.587772 4.121139
0.855997 -3.069485 -0.016408
8.174222 -2.288959 -2.833675
2.746815 3.195107 -0.534123
30.547804 0.057464 0.562734
14.213165 0.466262 4.126575
14.012849 1.799980 3.431949
25.644750 -2.352078 -0.286422
11.676463 1.431471 -2.829565
18.277684 3.229964 -2.001921
19.700222 0.990264 -0.231827
15.662949 -0.818620 -2.824883
12.009545 -3.252517 1.118492
11.426462 1.383902 3.425839
-1.814836 -1.519978 -2.845402
28.926230 -0.871096 -0.144425
14.162119 -0.966494 4.116546
-0.555232 -2.767406 -0.018073
12.717014 -3.264695 1.085141
8.785069 3.452521 -0.560798
22.247535 0.111205 -0.281936
6.532231 3.484698 -0.335928
12.948433 -3.440432 -2.415152
19.435636 -3.010664 -0.490015
26.599106 -0.103132 -0.191815
2.052611 2.118183 -0.735239
15.278165 -2.145529 1.645062
-2.153233 3.002908 -0.348008
13.054211 0.951309 2.422031
13.448486 3.459957 -0.708836
7.931011 -3.499103 -2.264523
-1.571186 -3.221000 -1.274077
7.331748 -2.574439 1.653365
26.337328 -1.441934 -0.224414
12.614019 3.288319 1.597118
19.022655 -1.680974 1.887758
26.693478 -0.819738 -2.811934
18.649582 1.889841 -2.821377
23.090204 2.073257 -0.321179
5.551553 0.099220 1.674081
15.029020 1.913785 2.353888
23.631511 2.590328 -0.344682
10.811175 -2.169620 -2.830580
7.565045 -3.012898 1.834056
18.274713 -3.166276 1.902773
14.262055 0.665673 4.125297
30.532824 -0.173507 0.659259
3.753801 -0.242073 -2.838866
3.022545 -2.759269 -0.775868
14.677625 3.597755 -1.036694
26.024021 2.400347 -0.192248
13.155527 -3.137479 -2.827827
17.557257 2.108634 -2.822660
13.155315 3.586297 -0.506998
-2.969151 0.375814 -2.174054
27.068508 1.248619 -0.202655
6.847391 3.244452 1.386751
13.093271 -0.728635 2.367574
