3.506033 0.208473 3.774472
17.111286 1.766757 4.142618
16.887019 1.665569 4.138812
16.772943 1.553362 4.121886
16.626662 1.529723 4.128995
16.274394 1.402976 4.128039
16.046771 1.318009 4.125771
15.747188 1.164349 4.111009
14.757858 0.855173 4.095575
14.430394 0.788531 4.099934
14.278058 0.664846 4.076203
13.368405 0.689359 4.137673
13.812638 0.511046 4.062242
13.433513 0.488674 4.077429
13.284481 0.371559 4.052138
4.016484 0.183323 3.825211
11.906831 1.205497 4.360150
12.021292 -0.862431 4.582662
15.670188 0.288878 4.800770
15.484969 0.172750 4.780355
15.342959 0.089580 4.765674
14.765792 0.202623 4.808998
14.301840 0.090597 4.794559
14.264188 -0.013000 4.770660
13.302342 -0.003839 4.791653
3.695631 0.105487 4.414158
16.455165 0.805634 4.894762
13.353653 0.631814 4.945943
13.274119 0.443893 4.901923
12.134858 0.540260 4.942403
13.500302 0.345197 4.873509
12.216047 1.047681 5.068154
3.606836 -0.000888 5.002117
12.372698 -0.601353 5.465523
13.441644 0.557546 5.728733
15.090752 0.268765 5.685933
14.828502 0.162449 5.663371
13.494950 0.297413 5.676501
14.629069 0.070998 5.643641
14.438641 -0.026813 5.622274
13.505325 0.147225 5.645932
12.581821 0.859118 5.778058
13.551915 0.253955 6.489341
13.473820 0.125786 6.464303
12.831018 -0.314130 6.357320
13.551119 0.529694 6.534783
12.893748 0.605096 6.515669
13.533643 0.301446 7.296323
13.456218 -0.040328 7.245928
13.259695 -0.114534 7.219956
13.547567 1.091977 7.398057
13.408893 0.430764 7.302680
13.489464 -0.117038 8.044025
13.610063 0.218019 8.088959
13.551206 0.212153 8.886443
13.587720 0.303222 9.699493
13.469358 0.145067 9.674200
13.333658 0.040604 9.646923
13.027193 -0.018944 9.589025
13.596564 0.553877 10.518223
13.521418 0.353650 10.504332
13.311468 0.187721 10.460148
12.994964 0.139888 10.390826
12.810204 0.059675 10.351641
13.528447 0.230025 11.336801
5.356398 3.862470 -2.848278
5.327222 3.773129 -2.860022
5.320653 3.575836 -2.930654
8.354460 3.623662 -2.251411
8.162844 3.522511 -2.183620
7.167325 3.615741 -2.275269
6.981598 3.536388 -2.198646
6.155143 3.593207 -2.304821
5.914911 3.529912 -2.185515
5.306473 3.534360 -2.365143
5.061810 3.561248 -2.200105
4.324637 3.559425 -2.238539
3.677096 3.504896 -2.323986
7.816198 3.496864 -2.029184
6.631745 3.461003 -2.037576
6.404465 3.457812 -1.921778
5.700974 3.441781 -2.090872
4.999711 3.500669 -2.183478
4.221553 3.658689 -2.123980
5.438129 3.446854 -1.939848
4.875404 3.445343 -2.126698
4.669260 3.407136 -2.013471
4.146225 3.466282 -2.158725
3.901550 3.393441 -2.028042
3.425254 3.474713 -2.154578
3.237327 3.385084 -2.069522
3.141311 3.371009 -2.009397
7.427495 3.491431 -1.851836
7.183440 3.479677 -1.742827
6.969837 3.462522 -1.649344
6.155729 3.466188 -1.792307
5.969353 3.457145 -1.699867
5.893696 3.435946 -1.667487
5.323958 3.445324 -1.875770
5.146958 3.447878 -1.775141
4.997081 3.442468 -1.692840
4.402756 3.402647 -1.850929
4.212083 3.410339 -1.730992
3.624033 3.386646 -1.846876
3.450419 3.388437 -1.731807
3.413099 3.372393 -1.714930
3.068960 3.379210 -1.953102
2.905810 3.376519 -1.840275
5.790297 3.425472 -1.618133
4.863212 3.433240 -1.621271
4.762179 3.412309 -1.572488
4.083056 3.412870 -1.651459
3.958424 3.396416 -1.583280
3.327201 3.384504 -1.652735
3.171405 3.385711 -1.551724
2.680912 3.377376 -1.684285
2.446897 3.379127 -1.524782
2.347954 3.384000 -1.455701
2.203395 3.455759 -1.311235
5.863566 3.681926 -1.094617
5.627598 3.575985 -1.014722
4.839076 3.664322 -1.068043
4.704442 3.593180 -1.022327
4.086486 3.641280 -1.115296
5.439277 3.528942 -0.942711
4.598966 3.534314 -0.988566
4.492160 3.498184 -0.947549
3.921085 3.603484 -1.038594
3.727113 3.511126 -0.968886
3.313792 3.644646 -1.086175
3.129825 3.556469 -1.018152
2.595514 3.580489 -1.078196
2.438093 3.539234 -1.003909
2.005038 3.568974 -1.103042
1.912846 3.563794 -1.046948
14.767119 2.495651 -0.790241
2.374747 3.487614 -0.995701
1.831657 3.537554 -1.013747
7.327838 2.692693 -0.881067
5.982714 2.864414 -0.873154
5.924122 2.838650 -0.857956
7.222429 2.616054 -0.863369
7.089579 2.494594 -0.847947
6.029016 3.491174 -0.736072
5.937593 3.474247 -0.704162
5.335731 3.499919 -0.904450
5.148064 3.482862 -0.826080
4.891773 3.476363 -0.715277
4.374824 3.469174 -0.899702
4.127319 3.443890 -0.788166
3.942414 3.434999 -0.702339
3.595432 3.468121 -0.915851
2.961342 3.482843 -0.954936
13.250051 2.639304 -0.482705
3.493850 3.430451 -0.877571
3.337916 3.425607 -0.797957
3.208556 3.409375 -0.737772
2.836652 3.441058 -0.905132
2.592365 3.398398 -0.791389
2.299278 3.461260 -0.966214
2.119638 3.403922 -0.896631
1.847322 3.418050 -0.870153
1.614238 3.435121 -0.956924
1.391815 3.380338 -0.870885
5.519752 2.868565 -0.698431
5.434454 2.810410 -0.683018
4.672511 2.858001 -0.814081
1.275055 3.341786 -0.838149
1.180819 3.346315 -0.784301
8.010862 2.394091 -0.611673
5.456554 2.627106 -0.743943
5.374442 2.667014 -0.702556
4.572161 2.708556 -0.824630
-2.479934 3.217338 -0.863112
-2.667825 3.249086 -0.948357
-2.897928 3.326952 -1.028933
-3.144096 3.209596 -0.987117
7.820044 2.373238 -0.562764
6.802575 2.399450 -0.777584
6.520888 2.341164 -0.701857
6.281866 2.313582 -0.633161
6.081167 2.301317 -0.573342
5.264433 2.525834 -0.704570
5.072589 2.431096 -0.665700
4.888963 2.362075 -0.623184
3.942339 2.413803 -0.686268
4.844775 2.338674 -0.615476
4.221625 2.366234 -0.811267
4.058007 2.366738 -0.748759
12.636112 3.649432 -0.254999
5.780741 3.481283 -0.641277
5.535454 3.499084 -0.541627
5.339225 3.480744 -0.470044
4.627030 3.460170 -0.604546
4.341982 3.462087 -0.480888
3.821671 3.437477 -0.643854
12.890481 2.631523 -0.414845
12.649394 2.555222 -0.377964
3.622727 3.427018 -0.553611
3.451486 3.425683 -0.473856
3.078050 3.414812 -0.667818
2.870631 3.402850 -0.567862
2.701588 3.391229 -0.488940
2.340061 3.392216 -0.658282
2.099552 3.378030 -0.540458
1.761156 3.362321 -0.722536
1.617511 3.364026 -0.644740
1.498405 3.348588 -0.593605
1.390293 3.343553 -0.542751
1.053503 3.344567 -0.720656
0.835522 3.331060 -0.627489
0.621580 3.314747 -0.548076
-1.987011 3.215423 -0.608877
-2.186928 3.181774 -0.740258
-2.367526 3.201259 -0.814872
-2.693405 3.180671 -0.664268
-2.938585 3.183637 -0.811227
7.528529 2.396656 -0.477301
7.207502 2.437196 -0.380440
7.053904 2.354045 -0.356116
6.827334 2.277598 -0.311318
5.940602 2.289932 -0.532510
5.841094 2.286767 -0.502487
4.700212 2.375795 -0.553326
5.698487 2.280858 -0.460089
5.550598 2.279972 -0.414960
5.364122 2.328981 -0.344479
4.606675 2.335713 -0.534361
4.233606 2.333442 -0.408705
4.126407 2.286801 -0.389669
3.375876 1.753082 -0.365080
5.107940 3.404067 -0.400448
4.192933 3.430290 -0.426878
4.997010 3.328281 -0.377756
4.604754 3.368358 -0.219203
4.062759 3.354792 -0.395837
3.959751 3.288345 -0.374395
3.292464 3.405690 -0.408059
3.115707 3.312627 -0.364494
2.548560 3.409097 -0.405277
2.344758 3.403302 -0.309980
2.195288 3.398341 -0.241805
1.829420 3.373260 -0.407126
1.645899 3.374253 -0.317376
3.049284 3.228060 -0.369629
1.527007 3.357774 -0.272092
1.255656 3.338260 -0.480741
1.069982 3.349651 -0.385452
0.880187 3.331217 -0.316445
0.493852 3.309971 -0.500904
0.334199 3.312537 -0.440106
0.080178 3.309876 -0.361630
-0.154680 3.300013 -0.312326
-1.190538 3.252968 -0.327448
-1.428233 3.249027 -0.379246
-1.683013 3.226347 -0.478552
-1.871816 3.215119 -0.560672
-2.230297 3.221480 -0.381744
-2.440853 3.192456 -0.513890
-2.711145 3.201569 -0.436234
8.003101 2.332226 -0.072253
6.673271 2.260807 -0.273642
6.479485 2.265910 -0.220723
5.185847 2.376004 -0.277177
4.167590 2.469291 -0.339561
-2.929151 3.181350 -0.465442
6.261974 2.257897 -0.164841
6.033650 2.260461 -0.104131
5.053365 2.350276 -0.244583
4.737263 2.336450 -0.154501
4.567529 2.293636 -0.117366
3.946116 2.270508 -0.336831
3.838033 2.415195 -0.249489
2.858413 1.198904 -0.080719
2.543767 0.234308 -0.030661
2.325286 0.187802 -0.023317
2.074646 0.123366 -0.022597
1.823637 0.069276 -0.021377
1.571104 0.029488 -0.017818
1.323130 -0.008747 -0.017620
1.082073 -0.050974 -0.022127
0.896909 -0.064866 -0.019658
0.776502 -0.079148 -0.022214
2.642847 -0.606912 0.063999
2.532159 -0.840113 -0.010241
2.304060 -0.918394 -0.022859
2.179446 -0.935046 -0.021421
2.004959 -0.953031 -0.018660
1.762857 -0.985998 -0.019776
1.498286 -1.014030 -0.020584
1.231527 -1.021844 -0.015136
0.995079 -1.033911 -0.016620
0.735362 -1.034016 -0.016040
0.481689 -1.039979 -0.020525
0.232745 -1.025051 -0.019640
-0.002367 -1.000979 -0.017515
-0.249647 -0.980917 -0.019959
-0.493470 -0.959535 -0.024628
-0.757381 -0.918491 -0.025700
-0.996401 -0.867299 -0.023938
-1.231455 -0.808566 -0.021686
-1.483826 -0.753471 -0.025524
2.639791 -1.695807 0.149402
2.628483 -1.850270 0.101614
-2.360822 -1.539246 -0.017967
-2.560473 -1.439780 -0.012242
-2.757558 -1.343889 -0.009018
2.646281 -2.132719 0.012485
-1.311764 -1.898649 -0.019224
-1.590594 -1.813634 -0.018326
-1.829372 -1.746152 -0.021733
-2.063846 -1.664993 -0.022135
-2.226715 -1.613410 -0.025266
2.574247 -2.238172 -0.018516
2.398183 -2.252683 -0.018476
2.167099 -2.272937 -0.020141
1.908620 -2.288555 -0.021147
1.651868 -2.295273 -0.019658
1.404052 -2.317812 -0.027575
1.142752 -2.284502 -0.019047
0.890631 -2.264349 -0.016752
0.646044 -2.256637 -0.020282
0.402068 -2.235204 -0.021150
0.157604 -2.191041 -0.016174
-0.078797 -2.169418 -0.020407
-0.340599 -2.123959 -0.019905
-0.598414 -2.073388 -0.019680
-0.852171 -2.022451 -0.021295
-1.102078 -1.973604 -0.025558
-2.707090 -2.802339 -0.000879
-2.893151 -2.741055 -0.008181
-3.062041 -2.738187 -0.030454
-1.923799 -3.093853 0.009137
-2.174270 -3.040986 -0.003755
-2.418303 -2.949237 -0.006486
-2.604343 -2.865218 -0.005588
10.941427 3.512479 0.059574
3.099421 3.317955 -0.014301
2.582135 3.409839 -0.087511
2.405951 3.365062 -0.031733
2.061075 3.389005 -0.184764
1.857196 3.377930 -0.098913
3.374523 3.227002 -0.157062
3.061583 3.215584 -0.037404
2.276879 3.260964 -0.026217
2.120365 3.148327 -0.017747
1.733194 3.372455 -0.047665
1.559796 3.307898 -0.011983
1.344240 3.290169 -0.124874
1.072451 3.334440 -0.089872
0.840218 3.329077 -0.101314
0.600791 3.314970 -0.169134
0.329753 3.326487 -0.116302
0.074583 3.307898 -0.059752
-0.278954 3.298246 -0.289624
-0.469284 3.284577 -0.278244
10.079134 2.371237 0.081880
2.949850 2.841446 -0.144270
2.830829 2.871931 -0.088384
2.568003 2.934849 0.031914
1.992839 3.049939 -0.018283
1.842787 2.939573 -0.021155
1.259122 3.119959 -0.009138
1.035133 3.007278 -0.005302
0.914903 2.948399 -0.006438
-0.684000 3.277392 -0.270579
-0.937840 3.265140 -0.287070
-1.068311 3.257959 -0.305042
-1.473839 3.242467 -0.091936
-1.690283 3.235613 -0.157653
-1.943276 3.229890 -0.251477
-2.194589 3.217203 -0.201502
-2.443451 3.206543 -0.189976
-2.664992 3.205379 -0.301066
9.163767 2.346282 0.246892
9.011616 2.259732 0.261780
7.748245 2.306103 -0.019185
7.541315 2.265871 0.019995
7.304766 2.243087 0.068593
3.038034 2.611019 0.076894
2.492269 2.756300 -0.020431
2.336346 2.637316 -0.023299
1.709215 2.852574 -0.021661
1.506384 2.736929 -0.021357
1.312219 2.684394 0.006808
0.780038 2.885989 -0.010687
0.525909 2.785570 -0.017207
0.357896 2.745116 -0.010098
-2.985998 3.192925 -0.178870
7.031250 2.242316 0.129144
6.816604 2.250048 0.177983
5.786851 2.237763 -0.045260
5.510116 2.265590 0.032932
5.233841 2.313791 0.115503
5.060630 2.310025 0.158372
4.401758 2.301561 -0.066469
4.245734 2.307541 -0.020077
3.960303 2.312904 0.061728
3.862682 2.380556 0.110714
3.227503 2.264992 -0.115036
3.020633 2.498910 0.038959
2.203896 2.539821 -0.027640
2.054013 2.441689 -0.030619
1.213289 2.605579 -0.012736
1.013449 2.516929 -0.016163
0.857652 2.457081 -0.017407
0.237536 2.715142 -0.009645
0.020497 2.665232 -0.013102
-0.232389 2.627047 -0.015335
-0.483906 2.600982 -0.021771
-0.736628 2.601625 -0.019994
-0.985833 2.615015 -0.021352
-1.176884 2.641155 -0.018031
3.152705 2.236426 -0.104140
3.025330 2.209180 -0.077983
2.704750 2.174573 -0.002373
2.602661 2.119473 0.001722
2.304960 2.170877 0.101369
1.884433 2.346602 -0.030198
1.743252 2.290164 -0.021855
1.522434 2.200599 -0.014500
0.722542 2.416317 -0.015634
0.491546 2.349004 -0.017897
0.236287 2.288011 -0.020918
0.063488 2.259983 -0.020303
-1.767785 2.395048 -0.024389
2.560420 2.045140 -0.019425
2.214962 1.954135 0.025375
1.381444 2.128600 -0.021353
1.219078 2.066426 -0.022058
0.974355 1.982970 -0.023887
0.836903 1.943049 -0.024190
-0.057312 2.236778 -0.026108
-0.267040 2.219308 -0.025880
-0.511480 2.206314 -0.029374
-0.767230 2.212890 -0.029320
-1.019633 2.231099 -0.031493
-1.268662 2.263615 -0.034049
-1.512274 2.327895 -0.023305
-2.344371 2.202444 -0.014155
2.130993 1.811344 -0.021220
1.948950 1.728148 -0.021542
1.750438 1.644730 -0.022057
0.698255 1.910065 -0.023483
0.447723 1.863148 -0.019467
0.199213 1.825203 -0.018678
-0.047468 1.795619 -0.021716
-0.195436 1.773839 -0.029746
-1.270578 1.853940 -0.025713
-1.541081 1.912038 -0.025101
-1.780010 1.980710 -0.022432
-2.037172 2.069372 -0.019935
-2.238789 2.157368 -0.013852
2.526190 1.331744 0.038764
1.628825 1.595514 -0.023832
1.438938 1.538402 -0.020117
1.193423 1.457981 -0.024165
1.050391 1.426197 -0.021341
-0.331679 1.765604 -0.032742
-0.564055 1.770123 -0.031214
-0.807234 1.784893 -0.030766
-1.047467 1.814904 -0.028154
-2.359067 1.719068 -0.009900
-2.553021 1.804947 -0.011185
-2.715699 1.889732 -0.008476
3.027080 1.045302 0.204625
2.551150 1.154437 -0.040091
2.399968 1.144789 -0.017246
0.924695 1.399239 -0.020537
0.688648 1.357617 -0.017815
0.423083 1.321524 -0.014965
0.162654 1.284683 -0.021354
-0.130826 1.270031 -0.021979
-1.124123 1.334287 -0.025752
-1.328108 1.377217 -0.022517
-1.586014 1.429508 -0.026429
-1.837942 1.504839 -0.023658
-2.081730 1.602058 -0.014342
-2.243059 1.659437 -0.016193
-3.008067 1.487432 0.010285
2.594505 0.828263 0.191512
2.137192 1.030855 -0.022428
1.889406 0.944218 -0.023751
1.708781 0.893307 -0.022210
-0.342076 1.253398 -0.031572
-0.601709 1.268427 -0.029214
-0.842530 1.290627 -0.028693
-2.594523 1.259850 0.001385
-2.834895 1.376515 0.001106
-2.997842 1.456703 -0.002090
2.608913 0.676129 0.131684
1.580046 0.865618 -0.018899
1.383354 0.817786 -0.019023
1.129068 0.774816 -0.014640
0.880761 0.731786 -0.015262
0.744753 0.698105 -0.021441
-1.681537 0.886182 -0.018306
-1.869568 0.939153 -0.019723
-2.112579 1.039209 -0.010058
-2.350063 1.140067 -0.004903
2.592026 0.457099 0.049884
0.620132 0.685433 -0.021127
0.369409 0.675398 -0.016294
0.107619 0.659727 -0.018961
-0.137063 0.664232 -0.016765
-0.377550 0.670841 -0.018211
-0.632467 0.686809 -0.020402
-0.885196 0.723348 -0.017087
-1.133348 0.756644 -0.020618
-1.378049 0.802083 -0.022710
-1.554757 0.848712 -0.020275
-2.939795 0.742905 0.006376
-3.032781 0.793928 0.007649
-2.388447 0.447189 -0.012877
-2.641778 0.571853 -0.005475
-2.817369 0.665125 -0.001170
2.649792 -0.061869 0.252795
-1.178235 0.076268 -0.015044
-1.435178 0.131330 -0.016612
-1.686495 0.212258 -0.010173
-1.934946 0.275803 -0.015837
-2.176699 0.364859 -0.013317
2.636293 -0.288510 0.175701
0.533482 -0.068193 -0.012587
0.308467 -0.080506 -0.016587
0.109258 -0.077443 -0.016504
-0.186314 -0.064441 -0.017063
-0.439578 -0.041100 -0.016246
-0.689752 -0.006050 -0.014049
-0.935505 0.026371 -0.016652
2.642289 -0.470981 0.111669
-2.690648 -0.287534 -0.011161
-2.947712 -0.153463 -0.006145
-1.933534 -0.598913 -0.018156
-2.210573 -0.488859 -0.013233
-2.463896 -0.393713 -0.014836
2.641563 -1.102208 0.332810
-1.751881 -0.667541 -0.022288
2.646879 -1.320642 0.265382
2.652022 -1.549039 0.194522
-2.886228 -1.275338 -0.005837
-2.994918 -1.229025 -0.007685
2.439042 3.369391 0.260220
2.689665 3.087839 0.052780
2.680023 3.130689 0.073899
0.753185 3.280618 -0.007095
0.646331 3.237743 -0.002627
-0.056093 3.306910 -0.028078
-0.239558 3.293635 -0.006040
11.988941 2.259356 0.425510
11.716871 2.208094 0.457193
2.973561 2.841428 0.184000
2.515027 2.989436 0.074239
1.483625 2.926748 0.094205
1.303240 3.072666 0.234405
1.100434 3.077620 0.019609
0.513797 3.175614 -0.008909
0.301834 3.101445 -0.009421
0.014276 3.027930 -0.006678
-0.433341 3.270504 -0.001538
-0.691718 3.252060 -0.002279
-0.949021 3.258892 0.000732
-1.193066 3.258661 -0.023511
-1.349958 3.250297 -0.057242
-1.912899 3.175193 -0.001266
-2.140146 3.219257 -0.045976
-2.883197 3.239943 -0.091396
8.190229 2.327255 0.420503
8.088373 2.268960 0.429633
-0.076163 3.000443 -0.013279
-0.206355 2.982656 -0.010369
-0.496868 2.943329 -0.018223
-0.710389 2.939858 -0.015355
-0.965400 2.948768 -0.015922
-1.217192 2.984157 -0.009438
-1.462872 3.036875 -0.003451
-1.711446 3.105230 -0.001679
-2.171326 2.945730 -0.004606
-2.459138 3.097920 0.002158
-2.698272 3.191042 -0.035431
-2.979228 3.056086 -0.010485
6.667354 2.260454 0.212776
6.469701 2.238720 0.251484
6.229152 2.214057 0.298426
5.973602 2.204545 0.351027
5.692227 2.215908 0.412938
4.935289 2.307142 0.189089
4.753680 2.291409 0.230028
4.549926 2.244681 0.267678
4.165357 2.302063 0.376126
-1.289362 2.662653 -0.015234
-1.493124 2.711363 -0.009516
-1.737427 2.778436 -0.008101
-1.974838 2.862964 -0.005578
-2.530458 2.744387 -0.000750
-2.727015 2.855448 -0.002211
-2.886107 2.962928 0.002012
3.192996 2.206155 0.229406
2.995460 2.170361 0.265324
2.708236 2.135617 0.320484
-2.002468 2.489250 -0.013203
-2.245917 2.598166 -0.006234
-2.411750 2.675174 -0.006225
-2.848510 2.493970 0.004232
-2.975903 2.570892 0.002377
2.479896 2.037202 0.333386
-2.390621 2.223697 -0.013837
-2.475482 2.266864 -0.012244
-2.731475 2.421094 0.001093
-2.894363 2.003642 0.001039
-3.002841 2.065338 0.000034
-2.811055 1.951739 -0.002083
2.947457 1.046754 0.218259
2.750454 1.069240 0.258002
-3.018233 1.627909 0.076306
2.853672 1.036103 0.229536
2.643644 0.614090 0.482211
2.634612 0.451592 0.428785
2.638085 0.189618 0.339902
2.648047 -0.406541 0.543553
2.643173 -0.554255 0.499389
2.645507 -0.813103 0.420906
2.647335 -0.961772 0.375523
2.636165 -1.587232 0.641084
2.625397 -1.739035 0.601493
2.674879 -2.017498 0.527582
11.203153 3.435961 0.660548
2.381364 3.376993 0.284769
10.256086 2.363681 0.675947
2.957790 2.856943 0.514336
1.295405 3.090491 0.512520
10.151483 2.243697 0.675575
9.888162 2.179388 0.703134
9.768766 2.107940 0.710077
7.765282 2.269809 0.487245
2.917195 2.687433 0.467965
2.875708 2.760692 0.504041
7.541818 2.204896 0.516129
7.322313 2.205925 0.554758
6.931256 2.198520 0.621348
6.735028 2.141111 0.645041
6.431530 2.170840 0.701886
5.498235 2.214350 0.453164
5.219636 2.265410 0.522168
4.998973 2.264812 0.567201
4.716216 2.234217 0.616997
4.014265 2.263455 0.400800
3.823909 2.350523 0.469891
2.929969 2.533499 0.411606
4.555959 2.185220 0.637097
3.940459 2.220723 0.405583
3.161899 2.150286 0.554833
2.949287 2.128853 0.591238
2.779618 2.122695 0.622730
2.375099 2.236314 0.434504
2.327989 2.194210 0.428320
2.983732 1.082296 0.592985
2.712850 1.101969 0.633747
2.640246 1.008052 0.612100
2.628934 0.767706 0.534714
2.607521 0.273201 0.747468
2.657307 -0.085943 0.638482
2.649118 -0.279681 0.581428
2.644738 -0.822518 0.838829
3.456500 -1.133611 0.732906
2.648635 -1.025294 0.786653
2.641587 -1.270171 0.723510
2.637665 -1.478231 0.669514
7.369065 3.312576 0.714809
6.793307 3.274424 0.816025
13.769761 2.229808 0.954751
13.181235 2.141842 1.000021
2.991908 2.861299 0.808933
8.387243 2.291354 0.917792
8.344779 2.240741 0.916557
2.936085 2.784064 0.798722
2.866097 2.656633 0.775698
9.223269 2.118879 0.784281
7.982385 2.202944 0.958664
7.685450 2.148325 0.989330
6.227830 2.157787 0.733819
5.954726 2.158126 0.779357
5.479348 2.169934 0.859451
5.206306 2.219425 0.913028
4.411868 2.229290 0.676651
4.211010 2.313458 0.736045
3.879786 2.304575 0.796935
2.889913 2.491419 0.719471
2.853563 2.563656 0.749733
5.741385 2.133761 0.809896
4.232786 2.178342 0.698608
3.205402 2.105048 0.863753
2.667863 2.137059 0.649031
2.415850 2.249010 0.734309
2.314609 2.194049 0.733840
2.323629 2.044308 0.679811
2.851930 1.047000 0.947076
2.648036 0.958095 0.940737
2.644360 0.703734 0.869059
2.636643 0.473522 0.803599
2.681035 -0.130997 1.012567
2.671996 -0.282971 0.974833
2.640478 -0.492530 0.923015
2.652411 -0.693877 0.871494
2.654635 -1.507669 1.098760
2.631612 -1.747640 1.047222
11.638597 3.333839 1.251450
12.206475 2.311368 1.104889
12.026370 2.273303 1.117420
1.298341 3.092073 0.883551
11.834281 2.154622 1.122834
2.983259 2.742530 1.074428
7.438818 2.096714 1.013338
7.016489 2.101978 1.067379
6.402987 2.158312 1.152051
6.273488 2.184121 1.171869
5.049328 2.207331 0.935628
4.264253 2.275273 1.071663
2.867407 2.524270 1.036613
6.864442 2.051970 1.078792
6.157468 2.110175 1.174400
5.952384 2.105040 1.198194
4.889348 2.200774 0.959496
4.681221 2.177933 0.987078
4.523649 2.153438 1.006056
4.257146 2.207092 1.058213
3.052698 2.097209 0.886766
2.666993 2.152110 0.963574
2.431978 2.201597 1.013410
2.930389 2.090537 0.904532
2.799218 2.095474 0.926609
2.302949 2.104490 1.002568
2.695970 1.083687 0.971591
2.638391 0.705185 1.219558
2.640708 0.495558 1.168687
2.600916 0.336976 1.131730
2.663592 -0.527168 1.305643
2.662063 -0.707754 1.267965
2.652236 -0.978999 1.211018
2.659896 -1.247225 1.154262
11.729221 3.438343 1.251957
7.224939 3.307696 1.203511
6.815896 3.273214 1.254815
1.289782 3.082441 1.225219
3.026241 2.717126 1.276994
2.962389 2.526819 1.313349
5.709567 2.097281 1.225753
5.452133 2.105606 1.257218
5.184480 2.101260 1.287253
4.954061 2.083448 1.310158
4.710138 2.082497 1.336950
4.554148 2.082048 1.353825
4.251713 2.135994 1.396612
3.001695 2.251920 1.242828
2.450291 2.244841 1.307507
2.950959 2.066655 1.203737
2.782745 2.082081 1.227771
2.360946 2.130208 1.287652
2.400550 1.716836 1.173158
2.715422 1.246982 1.343130
2.665116 1.054522 1.301186
2.632271 0.844919 1.253382
2.642932 0.315339 1.478564
2.653462 0.033027 1.421131
2.654242 -0.252363 1.362610
2.650026 -0.416573 1.328707
6.154611 -1.220087 1.603250
5.964647 -1.209209 1.606354
5.663526 -1.254961 1.601771
2.911636 -1.077053 1.612519
5.579775 -1.434560 1.576056
3.687519 -1.327510 1.584649
2.856273 -1.131437 1.602489
2.732475 -1.219199 1.585260
5.573334 -1.657442 1.543361
4.216660 -1.645392 1.540368
2.667384 -1.472379 1.541657
2.660351 -1.683909 1.506108
2.661910 -1.862461 1.476186
7.191494 3.191640 1.642776
7.099364 3.137021 1.644969
7.064713 3.092239 1.643111
14.571502 2.214855 1.705076
6.745019 2.673912 1.622478
6.529246 2.845077 1.660802
1.293516 3.088549 1.445005
0.951273 3.169086 1.310998
13.447567 2.099295 1.743335
13.300246 1.995240 1.740817
6.833660 2.492962 1.593297
1.281056 2.940233 1.399952
13.294586 1.853511 1.729090
6.862030 2.214849 1.556477
6.843666 2.042961 1.535988
6.682496 2.000848 1.543113
6.526407 1.989369 1.553686
6.307883 1.983863 1.569671
5.926382 2.071798 1.610393
5.647121 2.030321 1.625315
3.893458 2.147271 1.435696
5.596299 1.806089 1.597040
3.772056 2.068512 1.432683
3.333028 2.059867 1.472469
3.183633 2.045250 1.482797
2.967884 2.071455 1.506922
2.670717 2.045560 1.525562
2.440377 1.945950 1.520685
5.584790 1.582278 1.565128
5.459729 1.487366 1.559375
4.268026 1.651302 1.660416
3.793389 1.621914 1.681861
2.495575 1.772016 1.477653
4.101481 1.442465 1.635274
3.781477 1.524161 1.665840
3.668322 1.488650 1.665401
3.924746 1.081412 1.582131
3.605527 1.151869 1.609020
2.805759 1.217599 1.651482
4.099931 1.008417 1.561082
3.523744 1.056402 1.595249
2.844125 0.961155 1.601354
2.759563 0.877001 1.587388
2.659957 0.778812 1.570633
2.646399 0.525392 1.520644
3.665155 0.005384 1.791488
3.717379 -0.749844 1.675841
7.420278 -2.326197 2.036922
12.079217 3.271738 1.894821
1.462713 3.784788 1.621443
1.449921 3.754374 1.615480
6.841412 3.086172 1.661787
6.532939 2.966439 1.674581
1.294365 3.117777 1.661037
2.894135 2.538686 1.609290
7.053604 2.046566 1.987496
4.753194 2.008964 1.685011
4.334134 2.009220 1.713194
3.674004 2.003083 1.751922
5.597092 1.582230 1.979406
2.466312 1.845585 1.781023
3.657841 0.953991 1.931318
12.304370 -0.392263 2.299668
3.688751 0.123856 1.809381
3.661158 0.297871 1.835387
12.262240 -0.677418 2.275320
3.737414 -0.839202 2.085815
13.822073 -1.671978 2.209261
13.714251 -1.790627 2.197794
6.020133 -1.207523 2.117677
5.653434 -1.231958 2.104869
5.515623 -1.263834 2.097440
5.387354 -1.303082 2.089341
5.271985 -1.355002 2.080145
2.895789 -1.289562 1.997928
9.153533 -1.839689 2.125044
8.921538 -1.812891 2.123105
5.471477 -1.671227 2.051638
3.732838 -1.629091 1.993848
7.176320 -1.898694 2.075337
5.501890 -1.800689 2.038332
4.370194 -1.846131 1.993801
3.668124 -1.734540 1.978732
1.510274 3.956466 1.840646
7.425411 3.275819 2.092436
7.260338 3.241198 2.096011
6.991192 3.215580 2.104435
6.777428 3.177210 2.109339
6.463614 3.073059 2.111632
1.401270 3.399260 1.918053
1.368599 3.430882 1.927517
6.414820 2.820883 2.089011
1.341397 3.250623 1.890379
6.760762 2.420289 2.036337
6.501972 2.646640 2.068490
1.291970 3.029107 1.844049
6.921019 2.169558 2.004885
6.817940 2.336140 2.025705
6.127634 2.088116 2.022258
5.914317 2.087778 2.028833
5.650782 2.064715 2.034180
5.514403 2.031490 2.034377
13.642822 1.294549 2.443279
5.589070 1.818869 2.007625
5.512369 1.977300 2.028193
4.365440 2.019047 2.063474
4.221035 1.993887 2.063534
3.695178 1.941127 2.066890
12.550091 1.072718 2.418576
12.363668 1.044624 2.414932
4.174252 1.689447 2.025498
3.712351 1.851323 2.054734
12.286364 0.931565 2.405614
4.058594 1.428033 1.992829
12.280947 0.553247 2.376059
2.817501 1.207162 1.971073
12.282864 0.359574 2.360711
12.303032 0.057685 2.336618
12.292925 -0.136026 2.320716
3.670182 0.008582 2.179548
3.686067 -0.199229 2.156779
3.718142 -1.747319 2.433920
12.177325 2.682364 2.532287
16.768168 2.087766 2.517200
13.724294 1.717727 2.474368
10.431027 2.061087 2.476604
8.820741 2.074821 2.464651
13.751178 1.511143 2.459758
11.098956 1.754674 2.458735
7.952049 2.048257 2.454557
7.057325 2.061307 2.446419
5.944900 2.084849 2.435259
5.663910 2.070377 2.430282
5.427839 2.066828 2.426704
5.207335 2.061427 2.423025
5.080024 1.922939 2.408438
4.360907 2.006475 2.404970
3.738811 1.939881 2.386410
5.063580 1.684614 2.386032
4.211282 1.670201 2.369578
5.044398 1.440350 2.363427
4.058602 1.492890 2.348619
3.960973 1.352630 2.332157
2.799517 1.235664 2.287491
3.693449 0.957258 2.283960
2.776839 1.203485 2.283186
3.795361 -0.818903 2.508931
5.333552 -1.231608 2.578106
5.120508 -1.351103 2.555897
7.143763 -1.852634 2.646540
4.337789 -1.788335 2.472583
4.065133 1.525042 2.694252
3.923517 1.423294 2.678743
3.751773 0.939076 2.634263
3.682809 1.068173 2.639138
3.728649 0.806297 2.623360
3.714646 0.573765 2.605805
3.713475 0.396078 2.592910
12.986038 -0.734624 3.055498
3.696110 0.098568 2.570158
3.536678 0.071009 2.557827
12.927312 -0.867054 3.044008
13.809192 -1.462179 3.056029
11.362374 -1.302420 2.928669
13.712476 -1.644045 3.039236
11.365067 1.563002 3.105800
4.181369 1.676806 2.711531
5.429492 1.539636 2.774367
13.754203 0.577254 3.177407
13.283664 0.543431 3.149722
13.137059 0.698251 3.150960
13.598077 0.270457 3.150553
13.208176 0.266250 3.128953
18.158638 -0.334232 3.362931
13.646498 -0.011797 3.136205
13.235448 -0.054695 3.111025
13.194375 -0.351740 3.090636
3.707588 0.062437 2.953217
16.809807 2.124748 3.430924
16.675907 2.037883 3.418936
16.724899 1.911320 3.414473
14.890679 1.957328 3.318849
14.472213 1.906408 3.293504
13.898956 1.879944 3.261193
13.778939 1.638487 3.240873
13.754265 1.495530 3.231285
13.772721 1.389477 3.226135
4.263731 1.514736 3.059392
4.171916 1.449576 3.047967
4.118191 1.324357 3.038119
3.696763 0.099741 3.335334
11.718177 -1.058234 3.701818
11.677875 -1.139539 3.694541
11.726688 1.336718 3.801462
14.085942 0.284664 3.996372
13.696110 0.112631 3.949510
13.569182 -0.262623 3.920908
4.002455 0.345869 3.765356
4.049950 0.136632 3.781179
3.714799 0.137292 3.725988
3.555247 0.107954 3.701285
13.742448 1.739813 4.024410
13.768547 1.380720 4.011309
16.312679 0.901224 4.249861
16.279930 0.793467 4.241781
3.702856 0.066606 4.120241
12.107464 -0.801865 4.500137
12.054852 -0.878653 4.491097
13.501026 0.189268 4.726195
13.435577 -0.048172 4.710822
3.723844 0.104290 4.527127
3.685416 -0.034884 4.534741
14.602588 0.151100 4.888906
12.431347 -0.605819 5.327977
13.640513 0.024639 5.564597
13.536012 -0.254526 5.542771
13.624637 0.190435 5.562565
13.517529 0.234245 6.362910
13.452736 0.315196 7.193813
13.532970 0.178455 7.221427
13.607129 0.157577 8.121253
13.627089 -0.228709 8.147222
13.706123 0.032406 9.077042
13.984037 0.898454 9.139957
14.007269 0.730392 9.157831
13.918125 0.493168 9.134439
13.721185 0.134919 9.076415
13.028831 0.099973 9.724267
12.861593 -0.040393 9.660894
13.371387 0.279998 9.865745
13.228446 0.177253 9.808778
8.231935 2.508937 -0.789505
6.537816 2.507500 -0.837604
-3.237738 -0.300058 -0.884259
-3.241529 -0.597849 -0.891727
-3.233233 -0.919821 -0.892496
-3.239253 -1.288271 -0.905248
-3.240033 -1.727266 -0.933652
6.340479 3.219481 -0.748331
5.293425 3.214347 -0.868991
6.563768 2.847119 -0.830857
4.843127 2.767521 -0.710665
4.912783 2.355879 -0.755599
5.021119 2.311028 -0.799014
5.893055 3.248934 -0.605522
5.113711 2.319391 -0.391991
3.082099 -3.203586 0.029003
6.562077 3.314456 -0.315105
6.215899 3.328288 -0.223411
5.146971 3.267714 -0.368440
4.669408 3.329244 -0.216449
3.967021 3.338920 -0.374124
4.627598 2.268180 -0.239384
3.817482 2.394597 -0.340921
3.399569 1.752136 -0.231068
3.396226 1.602847 -0.244951
2.118704 0.200818 -0.008299
2.001435 0.043307 -0.004307
1.926245 -0.078707 -0.009046
2.629122 -0.343221 0.031875
1.781779 -0.269940 -0.010705
1.018341 -0.172009 -0.005157
0.911261 -0.296439 -0.008129
0.208490 -0.278294 -0.012566
2.568279 -0.597955 -0.007912
1.617767 -0.455200 -0.009059
0.773375 -0.429667 -0.007100
0.659860 -0.545920 -0.011051
0.190367 -0.293942 -0.012557
0.055430 -0.410612 -0.015692
2.433517 -0.753043 -0.006943
2.334160 -0.863047 -0.006898
1.442695 -0.647730 -0.010411
1.314417 -0.764685 -0.008031
0.524503 -0.658948 -0.010467
0.389736 -0.770602 -0.012094
-0.210216 -0.608998 -0.018839
-0.378772 -0.717316 -0.019662
-0.779517 -0.486968 -0.022167
-0.971032 -0.584154 -0.023854
-1.123937 -0.658099 -0.026222
2.206492 -1.017798 -0.012122
2.066817 -1.118751 -0.002270
1.174648 -0.889877 -0.006787
1.039409 -0.995721 -0.003757
0.255098 -0.879945 -0.016920
0.070350 -0.991166 -0.011580
-0.512815 -0.790553 -0.018671
-0.727839 -0.906610 -0.022899
-0.862608 -0.951260 -0.014490
-1.270120 -0.712780 -0.026177
-1.433588 -0.772964 -0.030654
-1.731047 -0.845102 -0.028702
1.958940 -1.239180 -0.007464
1.825997 -1.361930 -0.008644
0.917778 -1.111574 -0.009678
0.766288 -1.217962 -0.007519
-0.052823 -1.069273 -0.012791
-0.233781 -1.177373 -0.016027
-0.997870 -1.014756 -0.018568
-1.256713 -1.109996 -0.022044
-1.411613 -1.152643 -0.021131
-1.969683 -0.892877 -0.032794
-2.238003 -0.909708 -0.026589
2.620938 -1.597699 0.091035
1.675227 -1.467337 -0.002686
1.518478 -1.587443 -0.001615
0.628461 -1.336164 -0.015216
0.470157 -1.429706 -0.012294
0.317656 -1.527397 -0.014446
-0.370341 -1.255653 -0.019790
-0.518898 -1.312882 -0.014594
-0.744818 -1.413116 -0.016840
-1.533932 -1.181619 -0.020994
-1.766162 -1.235650 -0.026357
-2.025742 -1.264937 -0.023590
-2.273184 -1.282132 -0.024094
-2.408535 -1.280049 -0.020996
2.623187 -1.852954 0.029970
1.386255 -1.679477 0.000293
1.229915 -1.793871 -0.001369
0.185773 -1.600261 -0.014448
-0.024636 -1.714183 -0.017203
-0.879294 -1.461962 -0.015751
-1.023923 -1.516394 -0.019639
-1.284725 -1.589001 -0.020137
-1.483282 -1.639024 -0.023135
2.603080 -1.994706 -0.000363
2.451786 -2.112557 0.000110
1.101567 -1.885596 -0.003541
0.941500 -1.991247 -0.005977
-0.163331 -1.772300 -0.014522
-0.314280 -1.834901 -0.013980
-0.561285 -1.932451 -0.013935
-1.610497 -1.657302 -0.020653
-1.799937 -1.683054 -0.019961
-2.051742 -1.709768 -0.021367
-2.279134 -1.716324 -0.019619
2.310709 -2.237160 -0.004266
2.161844 -2.324100 0.000818
2.022783 -2.418086 0.001319
0.724059 -2.119174 -0.007404
0.438046 -2.263581 -0.006794
-0.825454 -2.020689 -0.014995
-1.090975 -2.097138 -0.017839
-1.367044 -2.157271 -0.019246
1.872707 -2.498053 0.006053
1.709959 -2.620725 0.000032
0.312730 -2.320790 -0.006396
0.157896 -2.392190 -0.008148
-0.066874 -2.474405 -0.005742
-1.589948 -2.184206 -0.015538
-1.830514 -2.218976 -0.019391
-2.087601 -2.231905 -0.017967
-2.342982 -2.239264 -0.019928
-2.512900 -2.234769 -0.019865
1.566105 -2.701965 0.000738
1.367471 -2.808613 0.001371
-0.187916 -2.532637 -0.009983
-0.367030 -2.585353 -0.006674
-0.624903 -2.659932 -0.006619
-0.771132 -2.695505 -0.005999
1.175825 -2.919970 -0.002780
0.884148 -3.058475 -0.003619
-0.900164 -2.726554 -0.006787
-1.130826 -2.760953 -0.002631
-1.391920 -2.796121 -0.000678
-1.636340 -2.818422 0.001271
-1.877004 -2.848802 -0.004359
0.754831 -3.113689 -0.003600
0.595090 -3.154173 0.003704
0.401156 -3.170900 0.021506
-2.133636 -2.875662 -0.012492
-2.392197 -2.873577 -0.013271
-2.649318 -2.867527 -0.016969
-2.904842 -2.836390 -0.014780
-3.084889 -2.885417 -0.045137
-2.058883 -3.262643 0.142339
3.060801 3.257896 -0.039017
2.914068 3.108439 0.017495
2.220504 3.132798 -0.014382
2.194000 3.297195 -0.007841
1.583286 3.243524 -0.015947
1.055415 3.251438 -0.011513
2.983806 2.786840 -0.012286
2.211962 2.947952 -0.007978
1.600676 2.910020 -0.011357
1.070996 3.051509 -0.005937
0.651517 3.068723 -0.010849
0.299991 3.023541 -0.017600
3.013341 2.632570 -0.028026
2.200010 2.705360 -0.005009
1.601762 2.751470 -0.011412
1.083848 2.795119 -0.002691
0.682628 2.832488 -0.013991
0.316281 2.856552 -0.013491
-0.002870 2.882252 -0.013433
-0.269227 2.826590 -0.016025
-0.512047 2.841349 -0.024630
3.812947 2.361010 0.026633
3.053001 2.460494 -0.049779
2.196604 2.451698 -0.011826
1.588283 2.501604 -0.009601
1.088655 2.541084 -0.006172
0.688162 2.573893 -0.012944
0.334901 2.608299 -0.015644
0.023644 2.627248 -0.014935
-0.250662 2.649099 -0.014937
-0.488365 2.668514 -0.023857
3.520291 2.221957 0.112260
2.977059 2.181551 -0.037015
2.173801 2.258561 -0.012084
2.095429 2.141332 0.013933
1.565050 2.254788 -0.010574
1.080364 2.289099 -0.012370
0.670786 2.317463 -0.010585
0.327861 2.351260 -0.015844
0.028567 2.372386 -0.020057
-0.238033 2.398200 -0.022058
-0.477129 2.414756 -0.024162
3.443561 1.753841 0.101612
2.616991 1.989729 0.084157
2.119372 1.987666 -0.009348
1.519439 1.998791 -0.008919
1.051699 2.039183 -0.017049
0.645665 2.074703 -0.015064
0.297008 2.097561 -0.015267
0.005482 2.127671 -0.022019
-0.254896 2.148354 -0.027172
-0.492434 2.169882 -0.028044
3.448393 1.678031 0.093189
2.883265 1.534015 -0.060458
2.051882 1.707817 -0.008990
1.461914 1.747733 -0.009196
1.000314 1.793750 -0.018550
0.615255 1.915019 -0.015428
0.587009 1.810788 -0.013938
0.250361 1.848759 -0.019127
-0.043164 1.879898 -0.023503
-0.306110 1.896533 -0.027087
-0.539836 1.916914 -0.031458
3.480481 1.408284 0.055868
3.091523 1.369395 0.174783
3.044941 1.322474 0.184106
2.486966 1.437432 0.075528
1.976444 1.470072 -0.007368
1.388794 1.502544 -0.009293
0.919933 1.544889 -0.014896
0.520205 1.575236 -0.016613
0.179458 1.606542 -0.020935
-0.119492 1.632292 -0.023634
-0.379053 1.659822 -0.028887
-0.615965 1.662509 -0.028827
3.581655 1.071646 -0.015399
3.439676 1.049175 0.026424
3.127333 1.143726 0.136137
2.589783 1.106117 -0.007955
2.512102 1.221626 0.037426
1.884199 1.224851 -0.005874
1.332897 1.321018 -0.013630
1.285975 1.203311 -0.013974
0.842622 1.333564 -0.015206
0.788930 1.221764 -0.011792
0.424839 1.333309 -0.015891
0.101421 1.406297 -0.021286
0.007510 1.322123 -0.020125
-0.223701 1.379995 -0.026057
-0.487449 1.414990 -0.029725
-0.738541 1.427265 -0.031760
3.148546 0.974564 0.107709
2.555433 1.012633 -0.009520
2.509841 0.888640 -0.013046
1.811886 1.051558 -0.005682
1.759783 0.933563 -0.006542
1.202836 1.019435 -0.014323
0.718477 1.070899 -0.012924
0.329516 1.136311 -0.014884
0.268020 1.013031 -0.018252
-0.042687 1.120841 -0.022206
-0.355264 1.142912 -0.026746
-0.624278 1.179003 -0.032261
-0.863494 1.195787 -0.030887
-0.974964 1.096790 -0.025140
2.374984 0.638678 -0.008540
1.668691 0.740367 -0.009392
1.047138 0.739684 -0.011137
0.587411 0.839613 -0.011074
0.498805 0.724461 -0.002547
0.167508 0.855270 -0.017135
-0.170025 0.929350 -0.017972
-0.299639 0.854189 -0.019002
-0.540527 0.895509 -0.020724
-0.827544 0.930603 -0.025475
-1.105118 0.957152 -0.027555
2.595791 0.411845 0.189817
2.294898 0.477316 -0.011097
2.227383 0.364490 -0.010380
1.554318 0.543106 -0.008003
1.472918 0.425738 -0.004438
0.923854 0.545666 -0.010033
0.421296 0.582153 -0.013453
0.049915 0.697892 -0.012658
-0.043574 0.574154 -0.014931
-0.394889 0.650896 -0.015127
-0.667111 0.712522 -0.022899
-0.854468 0.675120 -0.022131
-1.099115 0.675490 -0.023347
-1.355948 0.744644 -0.030251
-1.527612 0.638134 -0.025274
2.616985 0.165333 0.138476
1.364449 0.262396 -0.005337
0.792343 0.366291 -0.007484
0.698851 0.238120 -0.009906
0.286041 0.411172 -0.011218
0.190870 0.293943 -0.013719
-0.182445 0.425268 -0.011056
-0.294531 0.306919 -0.013212
-0.630789 0.411737 -0.017901
-0.935480 0.498576 -0.023030
-1.120004 0.423174 -0.021697
-1.381849 0.485233 -0.019087
-1.632383 0.519327 -0.022508
-1.884254 0.474549 -0.027139
-2.077215 0.425967 -0.017971
2.626389 -0.085658 0.086518
1.256853 0.100173 -0.009583
1.158894 -0.018074 -0.008147
0.563569 0.081341 -0.009297
0.454387 -0.032815 -0.007686
0.051482 0.144628 -0.014730
-0.066536 0.034919 -0.013036
-0.434716 0.177574 -0.015042
-0.605197 0.112002 -0.018198
-0.906381 0.195416 -0.018513
-1.176988 0.244306 -0.021971
-1.403601 0.206450 -0.019584
-1.653032 0.279960 -0.015704
-1.897007 0.261301 -0.017509
-2.171861 0.270039 -0.017235
-2.377961 0.338798 -0.017455
-2.643399 0.375476 -0.013292
-2.891687 0.403119 -0.010376
-3.039553 0.378477 -0.012148
0.325126 -0.158884 -0.007527
-0.196041 -0.075886 -0.012571
-0.343291 -0.196655 -0.014783
-0.697149 -0.025753 -0.016306
-0.869419 -0.140747 -0.018962
-1.186393 0.020809 -0.021700
-1.422117 -0.091312 -0.021789
-1.695719 0.080348 -0.021081
-1.920562 0.016469 -0.019347
-2.178336 -0.031713 -0.017910
-2.429706 0.056706 -0.014966
-2.659461 0.170767 -0.016519
-2.923149 0.111027 -0.013576
-3.044172 0.112236 -0.013036
2.634650 -0.585582 0.307592
-0.481208 -0.293917 -0.014896
-0.646559 -0.404703 -0.018240
-0.996676 -0.219744 -0.023494
-1.189695 -0.315278 -0.024371
-1.361190 -0.388441 -0.023964
-1.680423 -0.188054 -0.024155
-1.938709 -0.253002 -0.023427
-2.192559 -0.291171 -0.021534
-2.457785 -0.278975 -0.019986
-2.688229 -0.205605 -0.019681
-2.925091 -0.228497 -0.014141
2.626272 -0.836743 0.258359
-1.490804 -0.438594 -0.027216
-1.710926 -0.508803 -0.031961
-1.965466 -0.555592 -0.027474
-2.239204 -0.583613 -0.023528
-3.000702 -0.531156 -0.008483
2.630352 -1.173944 0.185284
2.630055 -1.060023 0.210160
-2.466828 -0.591202 -0.021928
-2.711338 -0.579639 -0.019287
2.628258 -1.336488 0.149425
-2.490922 -0.905785 -0.019536
2.620534 -1.840560 0.395049
2.616867 -2.021505 0.357974
6.687601 3.287160 0.149735
2.363983 3.306576 0.217546
0.624492 3.263566 -0.014770
0.230928 3.264143 -0.004946
0.188004 3.277916 0.021039
-0.102434 3.267597 -0.003095
2.686697 2.988677 0.101768
2.382532 2.991956 0.215069
1.316298 2.975823 0.125525
0.625677 3.190474 -0.006834
0.259741 3.156600 -0.007650
-0.035193 3.053550 -0.011704
-0.075717 3.190340 -0.006678
-0.455347 3.102946 -0.018980
-0.610856 3.162966 -0.015538
2.979788 2.624245 0.305051
-0.297266 2.926618 -0.007080
-0.485227 2.970772 -0.017510
4.583731 2.232535 0.165484
3.806634 2.329479 0.377727
2.977890 2.480166 0.299722
2.309423 2.124332 0.210495
2.348481 1.924073 0.179745
3.584797 1.624999 0.386313
2.852725 1.576242 0.272817
2.778102 1.652285 0.304161
3.599281 1.025622 0.321421
3.124656 1.013700 0.443501
2.637462 0.928605 0.260158
2.616651 0.725793 0.235811
2.641034 0.438623 0.488030
2.632455 0.183819 0.449285
3.537465 -0.196085 0.521300
2.630427 -0.062161 0.407532
3.532368 -0.304441 0.506247
2.625901 -0.315746 0.362172
2.639444 -0.842860 0.585070
2.629912 -1.051462 0.548555
2.625910 -1.301916 0.501797
2.623879 -1.565250 0.450390
11.213465 3.316152 0.618151
1.299475 3.035469 0.380538
2.908746 2.802462 0.333313
2.890891 2.732028 0.337031
4.735821 2.221464 0.517780
2.311821 2.159295 0.495054
2.626874 1.993756 0.382411
2.535497 1.997696 0.411896
2.326018 1.981288 0.477371
3.009046 1.582243 0.534661
2.997099 1.424698 0.522372
3.550725 1.042980 0.674305
3.005217 1.245423 0.501381
3.343679 1.043523 0.717522
2.647800 0.931643 0.556468
2.645335 0.687925 0.523927
2.667851 -0.090084 0.706433
2.640094 -0.294575 0.679260
3.579190 -0.581138 0.809335
2.628927 -0.533187 0.641298
2.636788 -0.758523 0.600615
2.626285 -1.286549 0.835134
2.630538 -1.528979 0.794535
2.627466 -1.777017 0.752748
2.632997 -1.963034 0.719751
2.873487 2.840912 0.646723
1.300025 3.025808 0.615080
2.864919 2.703334 0.644630
7.866685 2.143950 0.927668
3.789880 2.299305 0.723649
2.909895 2.472580 0.623384
2.389458 2.195576 0.746903
2.320258 2.150014 0.762432
2.311160 1.997185 0.754182
3.600475 1.583670 0.714315
2.358882 1.825102 0.728147
3.590464 1.487589 0.708303
2.998083 1.414711 0.826604
3.038797 1.175173 0.794773
3.003491 1.253241 0.810014
3.298588 1.014192 0.723802
3.226388 0.972047 0.734259
2.641471 0.957450 0.853590
2.640435 0.731470 0.826777
2.637639 0.464959 0.792801
2.593486 0.289193 0.777370
3.541167 -0.139703 0.872393
3.557356 -0.333909 0.845274
2.675671 -0.277905 0.981093
2.632529 -0.337840 0.978905
2.632136 -0.521334 0.952468
2.639312 -0.778347 0.913246
2.628880 -1.036118 0.874866
2.635518 -1.516195 1.133036
2.639720 -1.768992 1.097713
2.630697 -1.943341 1.073854
7.258188 3.155709 1.045952
6.848834 3.175869 1.091779
1.301436 3.031424 0.843038
2.955483 2.789872 0.923262
2.858706 2.660659 0.938999
2.949164 2.391241 0.907535
2.838410 2.523106 0.937474
2.413296 2.156423 1.008413
2.258508 2.007171 1.031469
2.365005 1.816176 0.994879
2.288130 1.868173 1.015201
3.044895 1.438354 1.115775
3.030853 1.475700 1.121033
2.990331 1.214613 1.104876
2.805449 1.072287 1.120868
2.645070 0.968416 1.135721
2.640723 0.743136 1.112727
2.637150 0.495058 1.085348
2.600875 0.301633 1.067742
3.526647 -0.429407 1.185871
2.659136 -0.297261 1.285841
2.638821 -0.327812 1.284251
3.522582 -0.541086 1.173728
2.641323 -0.553851 1.256862
2.634014 -0.426496 1.273115
2.638967 -0.764090 1.231127
2.632750 -1.023684 1.198736
2.638939 -1.314744 1.159959
2.632061 -1.896643 1.419262
1.281749 3.029414 1.120224
9.904021 2.203461 1.335450
2.920289 2.713979 1.215347
1.284381 2.910045 1.277959
2.900624 2.488479 1.208427
3.846412 2.230235 1.376577
2.969330 2.336002 1.189608
2.417291 2.230412 1.273011
2.381188 2.121770 1.272411
2.313985 2.000350 1.275509
2.407817 1.729469 1.241116
2.307292 1.877900 1.268236
2.675627 1.246950 1.437762
3.579951 0.905103 1.311873
2.619784 1.007984 1.423488
2.608183 0.763718 1.402566
12.326925 -0.267826 1.784723
2.631717 0.508575 1.375477
12.314446 -0.502821 1.770259
2.616479 0.258489 1.351478
2.624116 0.049785 1.328383
2.642451 -0.496699 1.564308
2.637726 -0.746300 1.539858
2.639600 -0.987500 1.515511
10.737745 -1.832178 1.700110
2.634179 -1.234508 1.490278
7.980840 -1.880102 1.721292
2.640464 -1.500005 1.461961
5.508431 -1.895045 1.738998
2.630898 -1.754432 1.434894
2.513942 -1.856798 1.428536
6.759094 -2.741751 1.668419
6.892584 3.148768 1.566339
6.829839 2.995614 1.562747
1.348205 3.394791 1.480324
6.598755 2.719031 1.562826
1.061197 3.091127 1.326371
14.591926 2.035627 1.895454
1.284757 2.942857 1.402440
2.886737 2.535738 1.498622
2.845585 2.532973 1.503073
5.386999 2.033842 1.598659
3.594945 2.268053 1.406464
4.310396 1.949996 1.658728
2.442936 2.037892 1.520127
4.137031 1.641316 1.650153
2.629477 1.671278 1.475260
2.447636 1.816410 1.505255
4.189318 1.423969 1.632898
3.682564 1.382889 1.660376
2.639609 1.521122 1.463114
4.457491 1.192677 1.601302
4.216064 1.053631 1.605903
2.815526 1.166849 1.696509
2.644357 1.370593 1.451108
4.184252 0.972092 1.601959
3.653445 0.865816 1.625270
2.749190 1.127407 1.697508
12.294633 0.113917 1.808477
3.538576 0.750069 1.623191
3.398957 0.683726 1.626137
2.899542 0.400572 1.631621
2.772140 0.274152 1.627908
2.633338 0.041882 1.615048
2.639582 -0.232771 1.589599
2.646064 -0.355401 1.577775
3.652532 -0.820326 1.829859
5.869134 -1.282812 1.780234
5.665368 -1.364949 1.776016
5.543679 -1.539915 1.764464
2.819599 -1.310430 1.797642
5.539296 -1.660891 1.755780
3.659553 -1.446930 1.783038
4.739268 -1.858919 1.745990
4.306895 -1.906242 1.744903
3.656154 -1.900431 1.748548
1.494608 3.792716 1.684662
1.484556 3.745255 1.685287
1.308856 3.095081 1.692147
1.309037 2.984400 1.688935
3.697289 1.933788 1.694739
2.421444 1.958125 1.773125
5.598264 1.669215 1.973727
2.373448 1.882579 1.771350
5.611666 1.386086 1.956865
3.655008 0.882532 1.946373
3.677918 0.836871 1.943218
3.667980 0.169081 1.899232
3.681375 -0.075465 1.882380
3.638137 0.081824 1.893557
3.665823 -0.315017 1.865837
2.856280 -1.311751 2.124671
7.961075 -1.913114 2.288082
5.035355 -1.690223 2.188209
3.706547 -1.634779 2.140406
4.969437 -1.866017 2.176436
4.351599 -1.876901 2.152494
3.670913 -1.775307 2.132058
13.661384 -2.826637 2.458965
13.616407 -2.977717 2.449385
6.431504 -2.825797 2.183046
6.413364 -2.925817 2.177357
1.556053 3.922504 1.906936
1.436545 3.587008 1.904854
1.342103 3.624482 1.911228
6.410457 3.015730 2.039217
1.419031 3.469954 1.902380
1.354725 3.342513 1.902036
6.380866 2.788877 2.027550
1.460788 3.141930 1.888859
1.345689 3.207747 1.897961
6.865526 2.408236 2.001583
6.716397 2.491625 2.007801
6.435062 2.595684 2.016568
6.876144 2.290971 1.994987
6.817410 2.232125 1.992364
5.534287 2.027550 1.995050
5.591670 1.882008 1.986088
4.352131 1.967663 2.004669
3.681321 1.912668 2.008871
4.115716 1.619362 1.986935
3.735202 1.731851 1.997726
4.146536 1.404537 1.973722
2.782138 1.152933 1.972428
3.636144 0.411045 2.243151
12.278276 -0.403788 2.533623
3.701583 0.134985 2.231144
12.290127 -0.691421 2.518700
3.668294 -0.006638 2.222464
13.814943 -1.516117 2.533722
13.797362 -1.405865 2.538890
3.747254 -0.775983 2.185790
13.741594 -1.712309 2.520532
5.915291 -1.273284 2.242914
3.705635 -0.920432 2.176846
13.541360 -1.981985 2.498580
5.688372 -1.301753 2.232797
5.467118 -1.327361 2.223055
5.097990 -1.368110 2.206936
8.771696 1.989842 2.527993
5.056005 1.907487 2.379296
4.346215 1.946141 2.353900
5.038061 1.729446 2.368747
4.079727 1.691947 2.329494
3.975175 1.672434 2.324361
3.709780 1.891456 2.326164
4.074188 1.475508 2.317390
4.138333 1.319734 2.311362
2.781713 1.152095 2.249666
12.308940 0.063141 2.559900
3.724933 0.784059 2.266427
3.685273 0.854583 2.268660
12.308552 -0.172347 2.547205
3.606798 -0.002026 2.550885
3.735702 -0.881357 2.533029
5.703307 -1.286345 2.684542
5.376878 -1.311579 2.656383
5.168952 -1.394558 2.636495
5.112977 -1.663297 2.623899
3.754749 -1.367801 2.520528
5.081226 -1.827761 2.616521
4.335763 -1.861669 2.554674
3.892693 -1.713515 2.522799
3.699288 -1.777939 2.505824
5.107930 -1.995097 2.613689
17.454282 2.811439 2.910381
16.880217 2.132820 2.850378
4.111665 1.709157 2.669862
3.850655 1.767557 2.649875
4.024156 1.507438 2.651891
3.883230 1.475160 2.637902
3.745584 1.174130 2.611291
3.718601 1.299389 2.614825
3.718261 1.016084 2.601680
3.682198 0.859992 2.591591
3.637513 0.074125 2.556270
5.331347 1.866338 2.785955
5.321803 1.718501 2.777284
3.653260 0.028380 2.894033
3.517748 -0.010700 2.875220
13.814504 -1.450587 3.375587
11.286878 -1.343384 3.160448
13.739007 -1.646310 3.360787
4.149080 1.710539 3.019781
4.168485 1.517417 3.013413
4.092901 1.356362 2.995796
3.672554 0.027186 3.237285
3.750116 -1.026489 3.257135
14.829848 1.941495 3.630171
4.104193 1.530437 3.352207
3.806506 1.070711 3.279712
3.732018 0.057008 3.602246
3.710588 -0.090522 3.598976
11.761312 -1.174533 3.957995
3.773609 -0.738867 3.627931
3.801632 0.498778 3.974079
3.436925 0.100437 3.877219
3.419919 -0.041990 3.876646
3.675510 -0.033995 4.316215
3.674484 -0.256214 4.327011
3.710625 0.096468 4.322644
12.348124 -0.766524 4.830315
12.211092 -0.930401 4.800666
12.131315 0.908289 4.846688
12.175689 0.534212 4.839759
12.157367 0.350710 4.829381
12.134081 -0.112060 4.808979
3.646311 0.072417 4.683006
3.617724 -0.026602 4.677858
3.493237 -0.077702 5.026027
12.514603 -0.687912 5.675466
13.455927 -1.177871 5.892259
13.466220 1.058005 5.958487
13.463627 0.757253 5.945425
13.449216 0.305422 5.925706
13.507153 -0.005765 5.929914
13.537881 -0.239789 5.930868
13.530475 -0.520626 5.922195
13.476825 -1.026586 5.899560
13.497092 0.016504 6.800505
13.513573 0.099025 7.705888
13.487581 -0.101106 7.693141
13.349350 -0.027329 9.553914
